ply
format ascii 1.0
element vertex 1159
property float x
property float y
property float z
property uchar red
property uchar green
property uchar blue
end_header
16.000000 1.875000 -32.000000 65 65 65 
16.062500 1.875000 -32.000000 65 65 65 
16.125000 1.875000 -32.000000 64 64 64 
16.187500 1.875000 -32.000000 65 65 65 
16.250000 1.875000 -32.000000 65 65 65 
16.312500 1.875000 -32.000000 64 64 64 
16.375000 1.875000 -32.000000 61 61 61 
16.437500 1.875000 -32.000000 59 59 59 
16.500000 1.875000 -32.000000 58 58 58 
16.562500 1.875000 -32.000000 58 58 58 
16.625000 1.875000 -32.000000 58 58 58 
16.687500 1.875000 -32.000000 57 57 57 
16.750000 1.875000 -32.000000 56 56 56 
16.812500 1.875000 -32.000000 55 55 55 
16.875000 1.875000 -32.000000 54 54 54 
16.937500 1.875000 -32.000000 54 54 54 
17.000000 1.875000 -32.000000 56 56 56 
17.062500 1.875000 -32.000000 56 56 56 
17.125000 1.875000 -32.000000 56 56 56 
17.187500 1.875000 -32.000000 57 57 57 
17.250000 1.875000 -32.000000 58 58 58 
17.312500 1.875000 -32.000000 60 60 60 
17.375000 1.875000 -32.000000 60 60 60 
17.437500 1.875000 -32.000000 59 59 59 
9.250000 0.937500 -16.000000 59 59 59 
9.263158 0.935673 -15.968811 60 60 60 
9.294347 0.935673 -15.968811 60 60 60 
9.343750 0.937500 -16.000000 60 60 60 
9.375000 0.937500 -16.000000 61 61 61 
9.424658 0.939335 -16.031311 60 60 60 
9.400778 0.933852 -15.937743 60 60 60 
9.431907 0.933852 -15.937743 60 60 60 
9.408124 0.928433 -15.845262 59 59 59 
9.203008 0.902256 -15.398497 55 55 55 
9.062731 0.885609 -15.114391 51 51 51 
9.058824 0.882353 -15.058824 53 53 53 
9.054945 0.879121 -15.003663 56 56 56 
9.051095 0.875912 -14.948905 54 54 54 
9.047273 0.872727 -14.894546 55 55 55 
9.010830 0.866426 -14.787004 55 55 55 
9.039711 0.866426 -14.787004 57 57 57 
9.052252 0.864865 -14.760361 71 71 71 
9.081081 0.864865 -14.760361 94 94 94 
9.093525 0.863309 -14.733813 120 120 120 
9.122302 0.863309 -14.733813 136 136 136 
9.167567 0.864865 -14.760361 142 142 142 
9.196397 0.864865 -14.760361 147 147 147 
-10.812500 1.812500 -32.000000 124 124 124 
-10.750000 1.812500 -32.000000 124 124 124 
-10.687500 1.812500 -32.000000 124 124 124 
-10.625000 1.812500 -32.000000 124 124 124 
-10.562500 1.812500 -32.000000 124 124 124 
-10.500000 1.812500 -32.000000 124 124 124 
-10.437500 1.812500 -32.000000 124 124 124 
-10.375000 1.812500 -32.000000 124 124 124 
-10.312500 1.812500 -32.000000 124 124 124 
-10.250000 1.812500 -32.000000 125 125 125 
-10.187500 1.812500 -32.000000 125 125 125 
-10.125000 1.812500 -32.000000 125 125 125 
-10.062500 1.812500 -32.000000 125 125 125 
-10.000000 1.812500 -32.000000 126 126 126 
-9.937500 1.812500 -32.000000 127 127 127 
-9.875000 1.812500 -32.000000 128 128 128 
-9.812500 1.812500 -32.000000 128 128 128 
-9.750000 1.812500 -32.000000 128 128 128 
-9.687500 1.812500 -32.000000 128 128 128 
-9.625000 1.812500 -32.000000 128 128 128 
-9.562500 1.812500 -32.000000 128 128 128 
-9.500000 1.812500 -32.000000 128 128 128 
-9.437500 1.812500 -32.000000 128 128 128 
-9.375000 1.812500 -32.000000 128 128 128 
-9.312500 1.812500 -32.000000 128 128 128 
-9.250000 1.812500 -32.000000 128 128 128 
-9.187500 1.812500 -32.000000 128 128 128 
-9.125000 1.812500 -32.000000 128 128 128 
-9.062500 1.812500 -32.000000 128 128 128 
-8.629213 1.737828 -30.681648 128 128 128 
-8.569288 1.737828 -30.681648 128 128 128 
-2.295858 0.686391 -12.118343 31 31 31 
-2.272189 0.686391 -12.118343 32 32 32 
-2.221566 0.685377 -12.100443 191 191 191 
-1.405099 0.438149 -7.735600 235 235 235 
-1.389991 0.438149 -7.735600 250 250 250 
-1.557219 0.496257 -8.761497 251 251 251 
-1.545064 0.497854 -8.789700 249 249 249 
-0.427704 0.281896 -4.976914 78 78 78 
-0.397817 0.281383 -4.967859 95 95 95 
-0.388114 0.281383 -4.967859 101 101 101 
-0.378411 0.281383 -4.967859 109 109 109 
-0.368485 0.281212 -4.964849 122 122 122 
-0.357057 0.279855 -4.940893 128 128 128 
-0.326346 0.262890 -4.641360 130 130 130 
-0.316921 0.262592 -4.636106 134 134 134 
-0.307866 0.262592 -4.636106 139 139 139 
-0.299150 0.262890 -4.641360 139 139 139 
-0.290085 0.262890 -4.641360 133 133 133 
-0.281020 0.262890 -4.641360 107 107 107 
-0.270270 0.261261 -4.612613 59 59 59 
-0.225225 0.261261 -4.612613 102 102 102 
-0.216216 0.261261 -4.612613 100 100 100 
-0.207207 0.261261 -4.612613 96 96 96 
-0.198198 0.261261 -4.612613 87 87 87 
-0.189189 0.261261 -4.612613 79 79 79 
-0.180180 0.261261 -4.612613 78 78 78 
-0.171171 0.261261 -4.612613 77 77 77 
-0.162162 0.261261 -4.612613 75 75 75 
-0.153153 0.261261 -4.612613 74 74 74 
-0.144144 0.261261 -4.612613 70 70 70 
-0.135135 0.261261 -4.612613 66 66 66 
-0.126126 0.261261 -4.612613 59 59 59 
-0.117117 0.261261 -4.612613 53 53 53 
-0.108108 0.261261 -4.612613 50 50 50 
-0.099099 0.261261 -4.612613 52 52 52 
-0.090090 0.261261 -4.612613 56 56 56 
-0.081081 0.261261 -4.612613 59 59 59 
-0.072072 0.261261 -4.612613 61 61 61 
-0.063063 0.261261 -4.612613 59 59 59 
-0.054054 0.261261 -4.612613 60 60 60 
-0.045045 0.261261 -4.612613 60 60 60 
-0.036036 0.261261 -4.612613 63 63 63 
-0.027027 0.261261 -4.612613 70 70 70 
-0.018018 0.261261 -4.612613 82 82 82 
-0.009009 0.261261 -4.612613 97 97 97 
0.000000 0.261261 -4.612613 116 116 116 
0.009009 0.261261 -4.612613 132 132 132 
0.018018 0.261261 -4.612613 142 142 142 
0.027027 0.261261 -4.612613 144 144 144 
0.036036 0.261261 -4.612613 140 140 140 
0.045045 0.261261 -4.612613 133 133 133 
0.054054 0.261261 -4.612613 124 124 124 
0.063063 0.261261 -4.612613 111 111 111 
0.072072 0.261261 -4.612613 97 97 97 
0.209677 0.467742 -8.258064 205 205 205 
0.225806 0.467742 -8.258064 216 216 216 
0.242180 0.468214 -8.266397 220 220 220 
15.687500 1.812500 -32.000000 62 62 62 
15.750000 1.812500 -32.000000 63 63 63 
15.812500 1.812500 -32.000000 63 63 63 
15.875000 1.812500 -32.000000 63 63 63 
15.937500 1.812500 -32.000000 62 62 62 
16.000000 1.812500 -32.000000 64 64 64 
16.062500 1.812500 -32.000000 64 64 64 
16.125000 1.812500 -32.000000 64 64 64 
16.187500 1.812500 -32.000000 65 65 65 
16.250000 1.812500 -32.000000 65 65 65 
16.312500 1.812500 -32.000000 64 64 64 
16.375000 1.812500 -32.000000 62 62 62 
16.437500 1.812500 -32.000000 60 60 60 
16.500000 1.812500 -32.000000 59 59 59 
16.562500 1.812500 -32.000000 59 59 59 
16.625000 1.812500 -32.000000 59 59 59 
16.687500 1.812500 -32.000000 57 57 57 
16.750000 1.812500 -32.000000 54 54 54 
16.812500 1.812500 -32.000000 53 53 53 
16.875000 1.812500 -32.000000 53 53 53 
16.937500 1.812500 -32.000000 53 53 53 
17.000000 1.812500 -32.000000 55 55 55 
17.062500 1.812500 -32.000000 56 56 56 
17.125000 1.812500 -32.000000 57 57 57 
17.187500 1.812500 -32.000000 58 58 58 
17.250000 1.812500 -32.000000 59 59 59 
17.312500 1.812500 -32.000000 60 60 60 
17.375000 1.812500 -32.000000 60 60 60 
17.437500 1.812500 -32.000000 59 59 59 
17.500000 1.812500 -32.000000 58 58 58 
14.726114 1.477707 -26.089172 64 64 64 
14.777070 1.477707 -26.089172 63 63 63 
9.263158 0.904483 -15.968811 60 60 60 
9.312500 0.906250 -16.000000 60 60 60 
9.362035 0.908023 -16.031311 61 61 61 
9.411765 0.909804 -16.062746 60 60 60 
9.058824 0.852941 -15.058824 56 56 56 
9.088235 0.852941 -15.058824 58 58 58 
9.084249 0.849817 -15.003663 56 56 56 
9.080292 0.846715 -14.948905 59 59 59 
9.043478 0.840580 -14.840580 67 67 67 
9.039711 0.837545 -14.787004 82 82 82 
9.068592 0.837545 -14.787004 106 106 106 
9.081081 0.836036 -14.760361 129 129 129 
9.109910 0.836036 -14.760361 143 143 143 
9.138739 0.836036 -14.760361 146 146 146 
9.167567 0.836036 -14.760361 144 144 144 
9.196397 0.836036 -14.760361 146 146 146 
-10.812500 1.750000 -32.000000 124 124 124 
-10.750000 1.750000 -32.000000 124 124 124 
-10.687500 1.750000 -32.000000 124 124 124 
-10.625000 1.750000 -32.000000 124 124 124 
-10.562500 1.750000 -32.000000 124 124 124 
-10.500000 1.750000 -32.000000 124 124 124 
-10.437500 1.750000 -32.000000 124 124 124 
-10.375000 1.750000 -32.000000 124 124 124 
-10.312500 1.750000 -32.000000 124 124 124 
-10.250000 1.750000 -32.000000 124 124 124 
-10.187500 1.750000 -32.000000 124 124 124 
-10.125000 1.750000 -32.000000 125 125 125 
-10.062500 1.750000 -32.000000 125 125 125 
-10.000000 1.750000 -32.000000 126 126 126 
-9.937500 1.750000 -32.000000 127 127 127 
-9.875000 1.750000 -32.000000 128 128 128 
-9.812500 1.750000 -32.000000 128 128 128 
-9.750000 1.750000 -32.000000 128 128 128 
-9.687500 1.750000 -32.000000 128 128 128 
-9.625000 1.750000 -32.000000 128 128 128 
-9.562500 1.750000 -32.000000 128 128 128 
-9.500000 1.750000 -32.000000 128 128 128 
-9.437500 1.750000 -32.000000 128 128 128 
-9.375000 1.750000 -32.000000 128 128 128 
-9.312500 1.750000 -32.000000 128 128 128 
-9.250000 1.750000 -32.000000 128 128 128 
-9.187500 1.750000 -32.000000 128 128 128 
-9.125000 1.750000 -32.000000 128 128 128 
-9.062500 1.750000 -32.000000 128 128 128 
-8.629213 1.677903 -30.681648 128 128 128 
-8.569288 1.677903 -30.681648 128 128 128 
-2.322963 0.663704 -12.136296 33 33 33 
-2.295858 0.662722 -12.118343 32 32 32 
-2.272189 0.662722 -12.118343 25 25 25 
-1.405099 0.423041 -7.735600 228 228 228 
-1.389991 0.423041 -7.735600 249 249 249 
-1.557219 0.479144 -8.761497 252 252 252 
-1.545064 0.480687 -8.789700 250 250 250 
-0.437424 0.272175 -4.976914 101 101 101 
-0.427184 0.271845 -4.970874 107 107 107 
-0.417223 0.271680 -4.967859 111 111 111 
-0.407520 0.271680 -4.967859 118 118 118 
-0.397817 0.271680 -4.967859 125 125 125 
-0.388114 0.271680 -4.967859 127 127 127 
-0.378411 0.271680 -4.967859 135 135 135 
-0.368039 0.271186 -4.958838 146 146 146 
-0.357704 0.270695 -4.949849 154 154 154 
-0.347407 0.270205 -4.940893 160 160 160 
-0.338369 0.270695 -4.949849 166 166 166 
-0.328900 0.270859 -4.952842 171 171 171 
-0.319419 0.271022 -4.955838 171 171 171 
-0.310115 0.271351 -4.961841 161 161 161 
-0.225225 0.252252 -4.612613 95 95 95 
-0.216216 0.252252 -4.612613 90 90 90 
-0.207207 0.252252 -4.612613 85 85 85 
-0.198198 0.252252 -4.612613 75 75 75 
-0.189189 0.252252 -4.612613 69 69 69 
-0.180180 0.252252 -4.612613 68 68 68 
-0.171171 0.252252 -4.612613 67 67 67 
-0.162162 0.252252 -4.612613 66 66 66 
-0.153153 0.252252 -4.612613 67 67 67 
-0.144144 0.252252 -4.612613 71 71 71 
-0.135135 0.252252 -4.612613 73 73 73 
-0.126126 0.252252 -4.612613 74 74 74 
-0.117117 0.252252 -4.612613 75 75 75 
-0.108108 0.252252 -4.612613 81 81 81 
-0.099099 0.252252 -4.612613 92 92 92 
-0.090090 0.252252 -4.612613 103 103 103 
-0.081081 0.252252 -4.612613 109 109 109 
-0.072072 0.252252 -4.612613 112 112 112 
-0.063063 0.252252 -4.612613 109 109 109 
-0.054054 0.252252 -4.612613 110 110 110 
-0.045045 0.252252 -4.612613 109 109 109 
-0.036036 0.252252 -4.612613 110 110 110 
-0.027027 0.252252 -4.612613 115 115 115 
-0.018018 0.252252 -4.612613 123 123 123 
-0.009009 0.252252 -4.612613 131 131 131 
0.000000 0.252252 -4.612613 142 142 142 
0.009009 0.252252 -4.612613 152 152 152 
0.018018 0.252252 -4.612613 154 154 154 
0.027027 0.252252 -4.612613 150 150 150 
0.036036 0.252252 -4.612613 144 144 144 
0.045045 0.252252 -4.612613 137 137 137 
0.054054 0.252252 -4.612613 129 129 129 
0.063063 0.252252 -4.612613 118 118 118 
0.072072 0.252252 -4.612613 108 108 108 
0.084112 0.261682 -4.785047 107 107 107 
0.093458 0.261682 -4.785047 129 129 129 
0.102804 0.261682 -4.785047 165 165 165 
15.687500 1.750000 -32.000000 62 62 62 
15.750000 1.750000 -32.000000 62 62 62 
15.812500 1.750000 -32.000000 62 62 62 
15.875000 1.750000 -32.000000 62 62 62 
15.937500 1.750000 -32.000000 62 62 62 
16.000000 1.750000 -32.000000 62 62 62 
16.062500 1.750000 -32.000000 63 63 63 
16.125000 1.750000 -32.000000 64 64 64 
16.187500 1.750000 -32.000000 65 65 65 
16.250000 1.750000 -32.000000 65 65 65 
16.312500 1.750000 -32.000000 63 63 63 
16.375000 1.750000 -32.000000 62 62 62 
16.437500 1.750000 -32.000000 60 60 60 
16.500000 1.750000 -32.000000 59 59 59 
16.562500 1.750000 -32.000000 59 59 59 
16.625000 1.750000 -32.000000 59 59 59 
16.687500 1.750000 -32.000000 56 56 56 
16.750000 1.750000 -32.000000 53 53 53 
16.812500 1.750000 -32.000000 51 51 51 
16.875000 1.750000 -32.000000 52 52 52 
16.937500 1.750000 -32.000000 53 53 53 
17.000000 1.750000 -32.000000 55 55 55 
17.062500 1.750000 -32.000000 56 56 56 
17.125000 1.750000 -32.000000 57 57 57 
17.187500 1.750000 -32.000000 58 58 58 
17.250000 1.750000 -32.000000 60 60 60 
17.312500 1.750000 -32.000000 61 61 61 
17.375000 1.750000 -32.000000 61 61 61 
17.437500 1.750000 -32.000000 60 60 60 
17.500000 1.750000 -32.000000 60 60 60 
16.966038 1.690566 -30.913208 62 62 62 
14.805195 1.454545 -26.597403 65 65 65 
14.666667 1.435897 -26.256411 65 65 65 
14.670926 1.431310 -26.172523 65 65 65 
14.722045 1.431310 -26.172523 63 63 63 
14.726114 1.426752 -26.089172 62 62 62 
14.777070 1.426752 -26.089172 62 62 62 
14.780952 1.422222 -26.006350 61 61 61 
14.831746 1.422222 -26.006350 60 60 60 
14.882540 1.422222 -26.006350 58 58 58 
9.088235 0.823529 -15.058824 62 62 62 
9.117647 0.823529 -15.058824 67 67 67 
9.113553 0.820513 -15.003663 77 77 77 
9.092896 0.816029 -14.921676 95 95 95 
9.072464 0.811594 -14.840580 119 119 119 
9.068592 0.808664 -14.787004 137 137 137 
9.097473 0.808664 -14.787004 143 143 143 
9.126354 0.808664 -14.787004 145 145 145 
9.155234 0.808664 -14.787004 148 148 148 
9.184115 0.808664 -14.787004 148 148 148 
9.212996 0.808664 -14.787004 146 146 146 
-10.812500 1.687500 -32.000000 124 124 124 
-10.750000 1.687500 -32.000000 124 124 124 
-10.687500 1.687500 -32.000000 124 124 124 
-10.625000 1.687500 -32.000000 124 124 124 
-10.562500 1.687500 -32.000000 124 124 124 
-10.500000 1.687500 -32.000000 124 124 124 
-10.437500 1.687500 -32.000000 124 124 124 
-10.375000 1.687500 -32.000000 124 124 124 
-10.312500 1.687500 -32.000000 124 124 124 
-10.250000 1.687500 -32.000000 124 124 124 
-10.187500 1.687500 -32.000000 124 124 124 
-10.125000 1.687500 -32.000000 125 125 125 
-10.062500 1.687500 -32.000000 125 125 125 
-10.000000 1.687500 -32.000000 127 127 127 
-9.937500 1.687500 -32.000000 127 127 127 
-9.875000 1.687500 -32.000000 128 128 128 
-9.812500 1.687500 -32.000000 128 128 128 
-9.750000 1.687500 -32.000000 128 128 128 
-9.687500 1.687500 -32.000000 128 128 128 
-9.625000 1.687500 -32.000000 128 128 128 
-9.562500 1.687500 -32.000000 128 128 128 
-9.500000 1.687500 -32.000000 128 128 128 
-9.437500 1.687500 -32.000000 128 128 128 
-9.375000 1.687500 -32.000000 128 128 128 
-9.312500 1.687500 -32.000000 128 128 128 
-9.250000 1.687500 -32.000000 128 128 128 
-9.187500 1.687500 -32.000000 128 128 128 
-9.125000 1.687500 -32.000000 129 129 129 
-8.689138 1.617977 -30.681648 129 129 129 
-8.597015 1.611940 -30.567163 129 129 129 
-8.505576 1.605948 -30.453531 129 129 129 
-8.477612 1.611940 -30.567163 129 129 129 
-2.322963 0.640000 -12.136296 33 33 33 
-2.299259 0.640000 -12.136296 32 32 32 
-2.275556 0.640000 -12.136296 26 26 26 
-1.405099 0.407932 -7.735600 224 224 224 
-1.389991 0.407932 -7.735600 250 250 250 
-1.557219 0.462032 -8.761497 252 252 252 
-0.427184 0.262136 -4.970874 130 130 130 
-0.417223 0.261977 -4.967859 137 137 137 
-0.407520 0.261977 -4.967859 144 144 144 
-0.397817 0.261977 -4.967859 150 150 150 
-0.388114 0.261977 -4.967859 156 156 156 
-0.377724 0.261501 -4.958838 162 162 162 
-0.367816 0.261343 -4.955838 171 171 171 
-0.357057 0.260555 -4.940893 182 182 182 
-0.347407 0.260555 -4.940893 189 189 189 
-0.338369 0.261027 -4.949849 189 189 189 
-0.329099 0.261343 -4.955838 189 189 189 
-0.319806 0.261660 -4.961841 190 190 190 
-0.225225 0.243243 -4.612613 86 86 86 
-0.216216 0.243243 -4.612613 78 78 78 
-0.207207 0.243243 -4.612613 73 73 73 
-0.198198 0.243243 -4.612613 65 65 65 
-0.189189 0.243243 -4.612613 60 60 60 
-0.180180 0.243243 -4.612613 60 60 60 
-0.171171 0.243243 -4.612613 62 62 62 
-0.162162 0.243243 -4.612613 65 65 65 
-0.153153 0.243243 -4.612613 71 71 71 
-0.144144 0.243243 -4.612613 79 79 79 
-0.135135 0.243243 -4.612613 90 90 90 
-0.126126 0.243243 -4.612613 104 104 104 
-0.117117 0.243243 -4.612613 115 115 115 
-0.108108 0.243243 -4.612613 126 126 126 
-0.099099 0.243243 -4.612613 138 138 138 
-0.090090 0.243243 -4.612613 145 145 145 
-0.081081 0.243243 -4.612613 148 148 148 
-0.072072 0.243243 -4.612613 152 152 152 
-0.063063 0.243243 -4.612613 146 146 146 
-0.054054 0.243243 -4.612613 145 145 145 
-0.045045 0.243243 -4.612613 143 143 143 
-0.036036 0.243243 -4.612613 141 141 141 
-0.027027 0.243243 -4.612613 146 146 146 
-0.018018 0.243243 -4.612613 150 150 150 
-0.009009 0.243243 -4.612613 154 154 154 
0.000000 0.243243 -4.612613 160 160 160 
0.009009 0.243243 -4.612613 163 163 163 
0.018018 0.243243 -4.612613 159 159 159 
0.027027 0.243243 -4.612613 153 153 153 
0.036036 0.243243 -4.612613 146 146 146 
0.045045 0.243243 -4.612613 141 141 141 
0.054054 0.243243 -4.612613 136 136 136 
0.063063 0.243243 -4.612613 129 129 129 
0.074723 0.252189 -4.782253 117 117 117 
0.084112 0.252336 -4.785047 111 111 111 
0.093403 0.252189 -4.782253 123 123 123 
0.102744 0.252189 -4.782253 149 149 149 
0.112084 0.252189 -4.782253 180 180 180 
15.687500 1.687500 -32.000000 61 61 61 
15.750000 1.687500 -32.000000 61 61 61 
15.812500 1.687500 -32.000000 61 61 61 
15.875000 1.687500 -32.000000 62 62 62 
15.937500 1.687500 -32.000000 63 63 63 
16.000000 1.687500 -32.000000 63 63 63 
16.062500 1.687500 -32.000000 64 64 64 
16.125000 1.687500 -32.000000 65 65 65 
16.187500 1.687500 -32.000000 65 65 65 
16.250000 1.687500 -32.000000 64 64 64 
16.312500 1.687500 -32.000000 63 63 63 
16.375000 1.687500 -32.000000 61 61 61 
16.437500 1.687500 -32.000000 60 60 60 
16.500000 1.687500 -32.000000 60 60 60 
16.562500 1.687500 -32.000000 60 60 60 
16.625000 1.687500 -32.000000 59 59 59 
16.687500 1.687500 -32.000000 57 57 57 
16.750000 1.687500 -32.000000 53 53 53 
16.812500 1.687500 -32.000000 52 52 52 
16.875000 1.687500 -32.000000 53 53 53 
16.937500 1.687500 -32.000000 55 55 55 
17.000000 1.687500 -32.000000 54 54 54 
17.062500 1.687500 -32.000000 56 56 56 
17.125000 1.687500 -32.000000 57 57 57 
17.187500 1.687500 -32.000000 58 58 58 
17.250000 1.687500 -32.000000 60 60 60 
17.312500 1.687500 -32.000000 61 61 61 
17.375000 1.687500 -32.000000 62 62 62 
17.437500 1.687500 -32.000000 62 62 62 
16.905661 1.630189 -30.913208 62 62 62 
16.529411 1.588235 -30.117647 63 63 63 
16.588236 1.588235 -30.117647 64 64 64 
15.043189 1.435216 -27.215946 64 64 64 
14.801303 1.407166 -26.684038 65 65 65 
14.805195 1.402597 -26.597403 65 65 65 
14.666667 1.384615 -26.256411 65 65 65 
14.670926 1.380192 -26.172523 65 65 65 
14.816720 1.389068 -26.340836 63 63 63 
14.868167 1.389068 -26.340836 62 62 62 
14.871795 1.384615 -26.256411 62 62 62 
14.780952 1.371429 -26.006350 61 61 61 
14.831746 1.371429 -26.006350 60 60 60 
14.835443 1.367089 -25.924051 59 59 59 
14.980892 1.375796 -26.089172 59 59 59 
9.147058 0.794118 -15.058824 110 110 110 
9.126143 0.789762 -14.976234 127 127 127 
9.122040 0.786885 -14.921676 141 141 141 
9.134545 0.785455 -14.894546 146 146 146 
9.163636 0.785455 -14.894546 145 145 145 
9.176044 0.784029 -14.867514 144 144 144 
9.205082 0.784029 -14.867514 146 146 146 
9.234119 0.784029 -14.867514 148 148 148 
9.263158 0.784029 -14.867514 146 146 146 
-10.812500 1.625000 -32.000000 124 124 124 
-10.750000 1.625000 -32.000000 124 124 124 
-10.687500 1.625000 -32.000000 124 124 124 
-10.625000 1.625000 -32.000000 125 125 125 
-10.562500 1.625000 -32.000000 125 125 125 
-10.500000 1.625000 -32.000000 124 124 124 
-10.437500 1.625000 -32.000000 125 125 125 
-10.375000 1.625000 -32.000000 125 125 125 
-10.312500 1.625000 -32.000000 125 125 125 
-10.250000 1.625000 -32.000000 124 124 124 
-10.187500 1.625000 -32.000000 125 125 125 
-10.125000 1.625000 -32.000000 126 126 126 
-10.062500 1.625000 -32.000000 126 126 126 
-10.000000 1.625000 -32.000000 128 128 128 
-9.937500 1.625000 -32.000000 128 128 128 
-9.875000 1.625000 -32.000000 128 128 128 
-9.812500 1.625000 -32.000000 128 128 128 
-9.750000 1.625000 -32.000000 128 128 128 
-9.687500 1.625000 -32.000000 128 128 128 
-9.625000 1.625000 -32.000000 128 128 128 
-9.562500 1.625000 -32.000000 128 128 128 
-9.500000 1.625000 -32.000000 128 128 128 
-9.437500 1.625000 -32.000000 128 128 128 
-9.375000 1.625000 -32.000000 128 128 128 
-9.312500 1.625000 -32.000000 129 129 129 
-9.250000 1.625000 -32.000000 129 129 129 
-8.842105 1.563910 -30.796993 129 129 129 
-8.781955 1.563910 -30.796993 129 129 129 
-8.624536 1.546468 -30.453531 129 129 129 
-8.470589 1.529412 -30.117647 129 129 129 
-8.411765 1.529412 -30.117647 129 129 129 
-8.291971 1.518248 -29.897810 129 129 129 
-8.203636 1.512727 -29.789091 129 129 129 
-8.115942 1.507246 -29.681160 129 129 129 
-2.322963 0.616296 -12.136296 32 32 32 
-2.299259 0.616296 -12.136296 31 31 31 
-2.272189 0.615385 -12.118343 30 30 30 
-2.248521 0.615385 -12.118343 80 80 80 
-2.224852 0.615385 -12.118343 169 169 169 
-2.201183 0.615385 -12.118343 218 218 218 
-0.388114 0.252274 -4.967859 170 170 170 
-0.377724 0.251816 -4.958838 177 177 177 
-0.366265 0.250602 -4.934940 186 186 186 
-0.336364 0.236364 -4.654545 193 193 193 
-0.326716 0.235961 -4.646625 196 196 196 
-0.317460 0.235828 -4.643991 195 195 195 
-0.308390 0.235828 -4.643991 193 193 193 
-0.319613 0.251816 -4.958838 194 194 194 
-0.225225 0.234234 -4.612613 79 79 79 
-0.216216 0.234234 -4.612613 70 70 70 
-0.207207 0.234234 -4.612613 66 66 66 
-0.198198 0.234234 -4.612613 61 61 61 
-0.189189 0.234234 -4.612613 60 60 60 
-0.180180 0.234234 -4.612613 62 62 62 
-0.171171 0.234234 -4.612613 65 65 65 
-0.162162 0.234234 -4.612613 72 72 72 
-0.153153 0.234234 -4.612613 82 82 82 
-0.144144 0.234234 -4.612613 99 99 99 
-0.135135 0.234234 -4.612613 114 114 114 
-0.126126 0.234234 -4.612613 132 132 132 
-0.117117 0.234234 -4.612613 144 144 144 
-0.108108 0.234234 -4.612613 152 152 152 
-0.099099 0.234234 -4.612613 157 157 157 
-0.090090 0.234234 -4.612613 158 158 158 
-0.081081 0.234234 -4.612613 155 155 155 
-0.072072 0.234234 -4.612613 146 146 146 
-0.063063 0.234234 -4.612613 136 136 136 
-0.054054 0.234234 -4.612613 133 133 133 
-0.045045 0.234234 -4.612613 132 132 132 
-0.036036 0.234234 -4.612613 131 131 131 
-0.027027 0.234234 -4.612613 135 135 135 
-0.018018 0.234234 -4.612613 141 141 141 
-0.009009 0.234234 -4.612613 146 146 146 
0.000000 0.234234 -4.612613 149 149 149 
0.009009 0.234234 -4.612613 151 151 151 
0.018018 0.234234 -4.612613 147 147 147 
0.027027 0.234234 -4.612613 144 144 144 
0.036036 0.234234 -4.612613 140 140 140 
0.045045 0.234234 -4.612613 136 136 136 
0.054054 0.234234 -4.612613 134 134 134 
0.063063 0.234234 -4.612613 130 130 130 
0.074766 0.242991 -4.785047 123 123 123 
0.084112 0.242991 -4.785047 112 112 112 
0.093403 0.242849 -4.782253 111 111 111 
0.102744 0.242849 -4.782253 122 122 122 
0.112084 0.242849 -4.782253 146 146 146 
15.750000 1.625000 -32.000000 59 59 59 
15.812500 1.625000 -32.000000 59 59 59 
15.875000 1.625000 -32.000000 61 61 61 
15.937500 1.625000 -32.000000 63 63 63 
16.000000 1.625000 -32.000000 64 64 64 
16.062500 1.625000 -32.000000 65 65 65 
16.125000 1.625000 -32.000000 66 66 66 
16.187500 1.625000 -32.000000 66 66 66 
16.250000 1.625000 -32.000000 64 64 64 
16.312500 1.625000 -32.000000 63 63 63 
16.375000 1.625000 -32.000000 61 61 61 
16.437500 1.625000 -32.000000 61 61 61 
16.500000 1.625000 -32.000000 60 60 60 
16.562500 1.625000 -32.000000 61 61 61 
16.625000 1.625000 -32.000000 60 60 60 
16.687500 1.625000 -32.000000 57 57 57 
16.750000 1.625000 -32.000000 54 54 54 
16.812500 1.625000 -32.000000 53 53 53 
16.875000 1.625000 -32.000000 54 54 54 
16.937500 1.625000 -32.000000 55 55 55 
17.000000 1.625000 -32.000000 55 55 55 
17.062500 1.625000 -32.000000 57 57 57 
17.125000 1.625000 -32.000000 58 58 58 
17.187500 1.625000 -32.000000 58 58 58 
17.250000 1.625000 -32.000000 59 59 59 
17.312500 1.625000 -32.000000 60 60 60 
17.375000 1.625000 -32.000000 62 62 62 
17.437500 1.625000 -32.000000 63 63 63 
17.500000 1.625000 -32.000000 62 62 62 
16.902256 1.563910 -30.796993 63 63 63 
14.950820 1.363934 -26.859016 65 65 65 
14.919614 1.337621 -26.340836 61 61 61 
14.971061 1.337621 -26.340836 60 60 60 
14.878981 1.324841 -26.089172 59 59 59 
14.882540 1.320635 -26.006350 59 59 59 
14.933333 1.320635 -26.006350 59 59 59 
9.176471 0.764706 -15.058824 145 145 145 
9.155393 0.760512 -14.976234 148 148 148 
9.151184 0.757741 -14.921676 145 145 145 
9.180327 0.757741 -14.921676 148 148 148 
9.209472 0.757741 -14.921676 148 148 148 
9.255474 0.759124 -14.948905 145 145 145 
9.284672 0.759124 -14.948905 147 147 147 
9.296904 0.757741 -14.921676 147 147 147 
-10.812500 1.562500 -32.000000 124 124 124 
-10.750000 1.562500 -32.000000 124 124 124 
-10.687500 1.562500 -32.000000 124 124 124 
-10.625000 1.562500 -32.000000 124 124 124 
-10.562500 1.562500 -32.000000 124 124 124 
-10.500000 1.562500 -32.000000 124 124 124 
-10.437500 1.562500 -32.000000 125 125 125 
-10.375000 1.562500 -32.000000 125 125 125 
-10.312500 1.562500 -32.000000 125 125 125 
-10.250000 1.562500 -32.000000 125 125 125 
-10.187500 1.562500 -32.000000 125 125 125 
-10.125000 1.562500 -32.000000 126 126 126 
-10.062500 1.562500 -32.000000 127 127 127 
-10.000000 1.562500 -32.000000 128 128 128 
-9.937500 1.562500 -32.000000 128 128 128 
-9.875000 1.562500 -32.000000 128 128 128 
-9.812500 1.562500 -32.000000 128 128 128 
-9.750000 1.562500 -32.000000 128 128 128 
-9.687500 1.562500 -32.000000 128 128 128 
-9.625000 1.562500 -32.000000 128 128 128 
-9.562500 1.562500 -32.000000 128 128 128 
-9.500000 1.562500 -32.000000 128 128 128 
-9.437500 1.562500 -32.000000 128 128 128 
-9.375000 1.562500 -32.000000 128 128 128 
-9.312500 1.562500 -32.000000 129 129 129 
-8.902256 1.503759 -30.796993 129 129 129 
-8.776119 1.492537 -30.567163 129 129 129 
-8.684015 1.486989 -30.453531 129 129 129 
-8.560885 1.476015 -30.228783 129 129 129 
-8.470589 1.470588 -30.117647 129 129 129 
-8.350365 1.459854 -29.897810 129 129 129 
-8.261818 1.454545 -29.789091 129 129 129 
-8.173913 1.449275 -29.681160 129 129 129 
-7.915195 1.413428 -28.946997 129 129 129 
-7.830986 1.408451 -28.845070 129 129 129 
-2.322963 0.592593 -12.136296 32 32 32 
-2.299259 0.592593 -12.136296 31 31 31 
-2.272189 0.591716 -12.118343 30 30 30 
-2.248521 0.591716 -12.118343 67 67 67 
-2.224852 0.591716 -12.118343 161 161 161 
-0.377724 0.242131 -4.958838 184 184 184 
-0.345455 0.227273 -4.654545 193 193 193 
-0.335791 0.226886 -4.646625 194 194 194 
-0.326531 0.226757 -4.643991 195 195 195 
-0.317280 0.226629 -4.641360 196 196 196 
-0.308215 0.226629 -4.641360 194 194 194 
-0.299150 0.226629 -4.641360 191 191 191 
-0.225225 0.225225 -4.612613 70 70 70 
-0.216216 0.225225 -4.612613 64 64 64 
-0.207207 0.225225 -4.612613 62 62 62 
-0.198198 0.225225 -4.612613 60 60 60 
-0.189189 0.225225 -4.612613 60 60 60 
-0.180180 0.225225 -4.612613 62 62 62 
-0.171171 0.225225 -4.612613 65 65 65 
-0.162162 0.225225 -4.612613 73 73 73 
-0.153153 0.225225 -4.612613 84 84 84 
-0.144144 0.225225 -4.612613 98 98 98 
-0.135135 0.225225 -4.612613 113 113 113 
-0.126126 0.225225 -4.612613 128 128 128 
-0.117117 0.225225 -4.612613 136 136 136 
-0.108108 0.225225 -4.612613 140 140 140 
-0.099099 0.225225 -4.612613 142 142 142 
-0.090090 0.225225 -4.612613 140 140 140 
-0.081081 0.225225 -4.612613 136 136 136 
-0.072072 0.225225 -4.612613 131 131 131 
-0.063063 0.225225 -4.612613 117 117 117 
-0.054054 0.225225 -4.612613 110 110 110 
-0.045045 0.225225 -4.612613 107 107 107 
-0.036036 0.225225 -4.612613 102 102 102 
-0.027027 0.225225 -4.612613 102 102 102 
-0.018018 0.225225 -4.612613 107 107 107 
-0.009009 0.225225 -4.612613 114 114 114 
0.000000 0.225225 -4.612613 121 121 121 
0.009009 0.225225 -4.612613 124 124 124 
0.018018 0.225225 -4.612613 124 124 124 
0.027027 0.225225 -4.612613 126 126 126 
0.036036 0.225225 -4.612613 125 125 125 
0.045045 0.225225 -4.612613 122 122 122 
0.054054 0.225225 -4.612613 121 121 121 
0.063063 0.225225 -4.612613 118 118 118 
0.093403 0.233508 -4.782253 91 91 91 
0.102744 0.233508 -4.782253 93 93 93 
0.112084 0.233508 -4.782253 111 111 111 
15.750000 1.562500 -32.000000 58 58 58 
15.812500 1.562500 -32.000000 58 58 58 
15.875000 1.562500 -32.000000 60 60 60 
15.937500 1.562500 -32.000000 63 63 63 
16.000000 1.562500 -32.000000 64 64 64 
16.062500 1.562500 -32.000000 65 65 65 
16.125000 1.562500 -32.000000 65 65 65 
16.187500 1.562500 -32.000000 65 65 65 
16.250000 1.562500 -32.000000 64 64 64 
16.312500 1.562500 -32.000000 62 62 62 
16.375000 1.562500 -32.000000 61 61 61 
16.437500 1.562500 -32.000000 61 61 61 
16.500000 1.562500 -32.000000 59 59 59 
16.562500 1.562500 -32.000000 59 59 59 
16.625000 1.562500 -32.000000 59 59 59 
16.687500 1.562500 -32.000000 57 57 57 
16.750000 1.562500 -32.000000 54 54 54 
16.812500 1.562500 -32.000000 52 52 52 
16.875000 1.562500 -32.000000 53 53 53 
16.937500 1.562500 -32.000000 54 54 54 
17.000000 1.562500 -32.000000 56 56 56 
17.062500 1.562500 -32.000000 58 58 58 
17.125000 1.562500 -32.000000 58 58 58 
17.187500 1.562500 -32.000000 58 58 58 
17.250000 1.562500 -32.000000 57 57 57 
17.312500 1.562500 -32.000000 58 58 58 
17.375000 1.562500 -32.000000 60 60 60 
17.437500 1.562500 -32.000000 61 61 61 
17.500000 1.562500 -32.000000 61 61 61 
17.562500 1.562500 -32.000000 61 61 61 
15.022508 1.286174 -26.340836 59 59 59 
14.882540 1.269841 -26.006350 58 58 58 
14.980892 1.273885 -26.089172 58 58 58 
9.184644 0.731261 -14.976234 145 145 145 
9.197081 0.729927 -14.948905 145 145 145 
9.243144 0.731261 -14.976234 146 146 146 
9.272395 0.731261 -14.976234 145 145 145 
9.301645 0.731261 -14.976234 147 147 147 
9.330895 0.731261 -14.976234 146 146 146 
-10.812500 1.500000 -32.000000 124 124 124 
-10.750000 1.500000 -32.000000 125 125 125 
-10.687500 1.500000 -32.000000 125 125 125 
-10.625000 1.500000 -32.000000 125 125 125 
-10.562500 1.500000 -32.000000 124 124 124 
-10.500000 1.500000 -32.000000 124 124 124 
-10.437500 1.500000 -32.000000 125 125 125 
-10.375000 1.500000 -32.000000 125 125 125 
-10.312500 1.500000 -32.000000 125 125 125 
-10.250000 1.500000 -32.000000 125 125 125 
-10.187500 1.500000 -32.000000 126 126 126 
-10.125000 1.500000 -32.000000 127 127 127 
-10.062500 1.500000 -32.000000 127 127 127 
-10.000000 1.500000 -32.000000 128 128 128 
-9.937500 1.500000 -32.000000 128 128 128 
-9.875000 1.500000 -32.000000 128 128 128 
-9.812500 1.500000 -32.000000 128 128 128 
-9.750000 1.500000 -32.000000 128 128 128 
-9.687500 1.500000 -32.000000 128 128 128 
-9.625000 1.500000 -32.000000 128 128 128 
-9.562500 1.500000 -32.000000 127 127 127 
-9.500000 1.500000 -32.000000 128 128 128 
-9.437500 1.500000 -32.000000 128 128 128 
-9.375000 1.500000 -32.000000 128 128 128 
-9.312500 1.500000 -32.000000 128 128 128 
-8.902256 1.443609 -30.796993 129 129 129 
-8.776119 1.432836 -30.567163 130 130 130 
-8.684015 1.427509 -30.453531 129 129 129 
-8.560885 1.416974 -30.228783 129 129 129 
-8.470589 1.411765 -30.117647 129 129 129 
-8.350365 1.401460 -29.897810 129 129 129 
-8.261818 1.396364 -29.789091 129 129 129 
-8.144404 1.386282 -29.574007 129 129 129 
-7.887324 1.352113 -28.845070 129 129 129 
-7.803509 1.347368 -28.743860 129 129 129 
-7.747368 1.347368 -28.743860 129 129 129 
-2.322963 0.568889 -12.136296 31 31 31 
-2.295858 0.568047 -12.118343 31 31 31 
-2.272189 0.568047 -12.118343 32 32 32 
-2.248521 0.568047 -12.118343 56 56 56 
-2.224852 0.568047 -12.118343 150 150 150 
-0.396776 0.238066 -5.078735 162 162 162 
-0.355151 0.218554 -4.662493 176 176 176 
-0.345455 0.218182 -4.654545 187 187 187 
-0.335791 0.217811 -4.646625 190 190 190 
-0.326716 0.217811 -4.646625 193 193 193 
-0.317280 0.217564 -4.641360 193 193 193 
-0.308215 0.217564 -4.641360 188 188 188 
-0.299150 0.217564 -4.641360 186 186 186 
-0.290414 0.217811 -4.646625 178 178 178 
-0.225225 0.216216 -4.612613 65 65 65 
-0.216216 0.216216 -4.612613 59 59 59 
-0.207207 0.216216 -4.612613 61 61 61 
-0.198198 0.216216 -4.612613 61 61 61 
-0.189189 0.216216 -4.612613 63 63 63 
-0.180180 0.216216 -4.612613 66 66 66 
-0.171171 0.216216 -4.612613 70 70 70 
-0.162162 0.216216 -4.612613 74 74 74 
-0.153153 0.216216 -4.612613 78 78 78 
-0.144144 0.216216 -4.612613 89 89 89 
-0.135135 0.216216 -4.612613 97 97 97 
-0.126126 0.216216 -4.612613 104 104 104 
-0.117117 0.216216 -4.612613 112 112 112 
-0.108108 0.216216 -4.612613 120 120 120 
-0.099099 0.216216 -4.612613 119 119 119 
-0.090090 0.216216 -4.612613 122 122 122 
-0.081081 0.216216 -4.612613 131 131 131 
-0.072072 0.216216 -4.612613 125 125 125 
-0.063063 0.216216 -4.612613 119 119 119 
-0.054054 0.216216 -4.612613 112 112 112 
-0.045045 0.216216 -4.612613 105 105 105 
-0.036036 0.216216 -4.612613 94 94 94 
-0.027027 0.216216 -4.612613 85 85 85 
-0.018018 0.216216 -4.612613 82 82 82 
-0.009009 0.216216 -4.612613 81 81 81 
0.000000 0.216216 -4.612613 84 84 84 
0.009009 0.216216 -4.612613 87 87 87 
0.018018 0.216216 -4.612613 90 90 90 
0.027027 0.216216 -4.612613 94 94 94 
0.036036 0.216216 -4.612613 98 98 98 
0.045045 0.216216 -4.612613 100 100 100 
0.054054 0.216216 -4.612613 101 101 101 
0.063063 0.216216 -4.612613 95 95 95 
0.093403 0.224168 -4.782253 74 74 74 
0.102744 0.224168 -4.782253 72 72 72 
0.112084 0.224168 -4.782253 81 81 81 
15.812500 1.500000 -32.000000 57 57 57 
15.875000 1.500000 -32.000000 58 58 58 
15.937500 1.500000 -32.000000 61 61 61 
16.000000 1.500000 -32.000000 62 62 62 
16.062500 1.500000 -32.000000 65 65 65 
16.125000 1.500000 -32.000000 66 66 66 
16.187500 1.500000 -32.000000 66 66 66 
16.250000 1.500000 -32.000000 65 65 65 
16.312500 1.500000 -32.000000 65 65 65 
16.375000 1.500000 -32.000000 64 64 64 
16.437500 1.500000 -32.000000 61 61 61 
16.500000 1.500000 -32.000000 59 59 59 
16.562500 1.500000 -32.000000 59 59 59 
16.625000 1.500000 -32.000000 59 59 59 
16.687500 1.500000 -32.000000 57 57 57 
16.750000 1.500000 -32.000000 54 54 54 
16.812500 1.500000 -32.000000 52 52 52 
16.875000 1.500000 -32.000000 53 53 53 
16.937500 1.500000 -32.000000 54 54 54 
17.000000 1.500000 -32.000000 57 57 57 
17.062500 1.500000 -32.000000 57 57 57 
17.125000 1.500000 -32.000000 56 56 56 
17.187500 1.500000 -32.000000 55 55 55 
17.250000 1.500000 -32.000000 55 55 55 
17.312500 1.500000 -32.000000 57 57 57 
17.375000 1.500000 -32.000000 60 60 60 
17.437500 1.500000 -32.000000 62 62 62 
17.500000 1.500000 -32.000000 61 61 61 
-10.812500 1.437500 -32.000000 123 123 123 
-10.750000 1.437500 -32.000000 124 124 124 
-10.687500 1.437500 -32.000000 124 124 124 
-10.625000 1.437500 -32.000000 124 124 124 
-10.562500 1.437500 -32.000000 124 124 124 
-10.500000 1.437500 -32.000000 124 124 124 
-10.437500 1.437500 -32.000000 125 125 125 
-10.375000 1.437500 -32.000000 125 125 125 
-10.312500 1.437500 -32.000000 125 125 125 
-10.250000 1.437500 -32.000000 125 125 125 
-10.187500 1.437500 -32.000000 126 126 126 
-10.125000 1.437500 -32.000000 127 127 127 
-10.062500 1.437500 -32.000000 127 127 127 
-10.000000 1.437500 -32.000000 126 126 126 
-9.937500 1.437500 -32.000000 127 127 127 
-9.875000 1.437500 -32.000000 127 127 127 
-9.812500 1.437500 -32.000000 128 128 128 
-9.750000 1.437500 -32.000000 128 128 128 
-9.687500 1.437500 -32.000000 129 129 129 
-9.625000 1.437500 -32.000000 129 129 129 
-9.562500 1.437500 -32.000000 128 128 128 
-9.500000 1.437500 -32.000000 128 128 128 
-9.437500 1.437500 -32.000000 128 128 128 
-9.375000 1.437500 -32.000000 128 128 128 
-9.312500 1.437500 -32.000000 128 128 128 
-9.250000 1.437500 -32.000000 129 129 129 
-8.776119 1.373134 -30.567163 129 129 129 
-8.716418 1.373134 -30.567163 129 129 129 
-8.560885 1.357934 -30.228783 129 129 129 
-8.470589 1.352941 -30.117647 129 129 129 
-8.380953 1.347985 -30.007326 129 129 129 
-8.261818 1.338182 -29.789091 129 129 129 
-8.203636 1.338182 -29.789091 129 129 129 
-8.086642 1.328520 -29.574007 129 129 129 
-7.830986 1.295775 -28.845070 129 129 129 
-2.322963 0.545185 -12.136296 30 30 30 
-2.292467 0.543575 -12.100443 31 31 31 
-2.268833 0.543575 -12.100443 28 28 28 
-2.245199 0.543575 -12.100443 46 46 46 
-2.224852 0.544379 -12.118343 139 139 139 
-0.396776 0.228146 -5.078735 135 135 135 
-0.355151 0.209448 -4.662493 154 154 154 
-0.345455 0.209091 -4.654545 171 171 171 
-0.335791 0.208735 -4.646625 178 178 178 
-0.326716 0.208735 -4.646625 182 182 182 
-0.317460 0.208617 -4.643991 183 183 183 
-0.308215 0.208499 -4.641360 181 181 181 
-0.299150 0.208499 -4.641360 180 180 180 
-0.290414 0.208735 -4.646625 166 166 166 
-0.300061 0.222626 -4.955838 151 151 151 
-0.225225 0.207207 -4.612613 62 62 62 
-0.216216 0.207207 -4.612613 62 62 62 
-0.207207 0.207207 -4.612613 63 63 63 
-0.198198 0.207207 -4.612613 65 65 65 
-0.189189 0.207207 -4.612613 68 68 68 
-0.180180 0.207207 -4.612613 72 72 72 
-0.171171 0.207207 -4.612613 74 74 74 
-0.162162 0.207207 -4.612613 79 79 79 
-0.153153 0.207207 -4.612613 85 85 85 
-0.144144 0.207207 -4.612613 92 92 92 
-0.135135 0.207207 -4.612613 104 104 104 
-0.126126 0.207207 -4.612613 113 113 113 
-0.117117 0.207207 -4.612613 123 123 123 
-0.108108 0.207207 -4.612613 137 137 137 
-0.099099 0.207207 -4.612613 148 148 148 
-0.090090 0.207207 -4.612613 157 157 157 
-0.081081 0.207207 -4.612613 168 168 168 
-0.072072 0.207207 -4.612613 172 172 172 
-0.063063 0.207207 -4.612613 167 167 167 
-0.054054 0.207207 -4.612613 162 162 162 
-0.045045 0.207207 -4.612613 155 155 155 
-0.036036 0.207207 -4.612613 143 143 143 
-0.027027 0.207207 -4.612613 128 128 128 
-0.018018 0.207207 -4.612613 109 109 109 
-0.009009 0.207207 -4.612613 93 93 93 
0.000000 0.207207 -4.612613 80 80 80 
0.009009 0.207207 -4.612613 71 71 71 
0.018018 0.207207 -4.612613 65 65 65 
0.027027 0.207207 -4.612613 70 70 70 
0.036036 0.207207 -4.612613 73 73 73 
0.045045 0.207207 -4.612613 72 72 72 
0.054054 0.207207 -4.612613 73 73 73 
0.063063 0.207207 -4.612613 72 72 72 
0.093403 0.214828 -4.782253 65 65 65 
0.102744 0.214828 -4.782253 65 65 65 
0.112084 0.214828 -4.782253 66 66 66 
5.366460 0.571429 -12.720497 130 130 130 
5.325153 0.564417 -12.564417 146 146 146 
5.506977 0.570543 -12.700775 157 157 157 
5.523220 0.569659 -12.681114 155 155 155 
5.582554 0.573209 -12.760124 155 155 155 
5.607477 0.573209 -12.760124 154 154 154 
5.623639 0.572317 -12.740280 149 149 149 
5.631008 0.570543 -12.700775 140 140 140 
5.647059 0.569659 -12.681114 118 118 118 
5.696594 0.569659 -12.681114 26 26 26 
15.812500 1.437500 -32.000000 57 57 57 
15.875000 1.437500 -32.000000 58 58 58 
15.937500 1.437500 -32.000000 59 59 59 
16.000000 1.437500 -32.000000 60 60 60 
16.062500 1.437500 -32.000000 63 63 63 
16.125000 1.437500 -32.000000 65 65 65 
16.187500 1.437500 -32.000000 65 65 65 
16.250000 1.437500 -32.000000 65 65 65 
16.312500 1.437500 -32.000000 66 66 66 
16.375000 1.437500 -32.000000 64 64 64 
16.437500 1.437500 -32.000000 62 62 62 
16.500000 1.437500 -32.000000 59 59 59 
16.562500 1.437500 -32.000000 59 59 59 
16.625000 1.437500 -32.000000 59 59 59 
16.687500 1.437500 -32.000000 57 57 57 
16.750000 1.437500 -32.000000 55 55 55 
16.812500 1.437500 -32.000000 53 53 53 
16.875000 1.437500 -32.000000 52 52 52 
16.937500 1.437500 -32.000000 54 54 54 
17.000000 1.437500 -32.000000 54 54 54 
17.062500 1.437500 -32.000000 54 54 54 
17.125000 1.437500 -32.000000 53 53 53 
17.187500 1.437500 -32.000000 53 53 53 
17.250000 1.437500 -32.000000 54 54 54 
17.312500 1.437500 -32.000000 57 57 57 
17.375000 1.437500 -32.000000 60 60 60 
17.437500 1.437500 -32.000000 62 62 62 
17.500000 1.437500 -32.000000 61 61 61 
-10.812500 1.375000 -32.000000 124 124 124 
-10.750000 1.375000 -32.000000 123 123 123 
-10.687500 1.375000 -32.000000 123 123 123 
-10.625000 1.375000 -32.000000 124 124 124 
-10.562500 1.375000 -32.000000 124 124 124 
-10.500000 1.375000 -32.000000 125 125 125 
-10.437500 1.375000 -32.000000 126 126 126 
-10.375000 1.375000 -32.000000 126 126 126 
-10.312500 1.375000 -32.000000 125 125 125 
-10.250000 1.375000 -32.000000 125 125 125 
-10.187500 1.375000 -32.000000 125 125 125 
-10.125000 1.375000 -32.000000 126 126 126 
-10.062500 1.375000 -32.000000 127 127 127 
-10.000000 1.375000 -32.000000 126 126 126 
-9.937500 1.375000 -32.000000 126 126 126 
-9.875000 1.375000 -32.000000 127 127 127 
-9.812500 1.375000 -32.000000 128 128 128 
-9.750000 1.375000 -32.000000 128 128 128 
-9.687500 1.375000 -32.000000 129 129 129 
-9.625000 1.375000 -32.000000 129 129 129 
-9.562500 1.375000 -32.000000 129 129 129 
-9.500000 1.375000 -32.000000 128 128 128 
-9.437500 1.375000 -32.000000 128 128 128 
-9.375000 1.375000 -32.000000 128 128 128 
-9.312500 1.375000 -32.000000 129 129 129 
-9.250000 1.375000 -32.000000 129 129 129 
-8.808989 1.318352 -30.681648 129 129 129 
-8.716418 1.313433 -30.567163 129 129 129 
-8.592592 1.303704 -30.340740 129 129 129 
-8.501845 1.298893 -30.228783 129 129 129 
-8.411765 1.294118 -30.117647 129 129 129 
-8.322345 1.289377 -30.007326 129 129 129 
-8.263737 1.289377 -30.007326 129 129 129 
-2.316100 0.519941 -12.100443 29 29 29 
-2.292467 0.519941 -12.100443 32 32 32 
-2.265487 0.519174 -12.082596 30 30 30 
-2.241888 0.519174 -12.082596 40 40 40 
-2.221566 0.519941 -12.100443 128 128 128 
-0.355151 0.200341 -4.662493 116 116 116 
-0.345455 0.200000 -4.654545 135 135 135 
-0.335982 0.199773 -4.649262 147 147 147 
-0.326716 0.199660 -4.646625 156 156 156 
-0.317640 0.199660 -4.646625 162 162 162 
-0.308390 0.199546 -4.643991 161 161 161 
-0.299320 0.199546 -4.643991 159 159 159 
-0.290414 0.199660 -4.646625 147 147 147 
-0.300061 0.212946 -4.955838 125 125 125 
-0.290381 0.212946 -4.955838 94 94 94 
-0.225225 0.198198 -4.612613 67 67 67 
-0.216216 0.198198 -4.612613 67 67 67 
-0.207207 0.198198 -4.612613 69 69 69 
-0.198198 0.198198 -4.612613 72 72 72 
-0.189189 0.198198 -4.612613 79 79 79 
-0.180180 0.198198 -4.612613 85 85 85 
-0.171171 0.198198 -4.612613 91 91 91 
-0.162162 0.198198 -4.612613 102 102 102 
-0.153153 0.198198 -4.612613 115 115 115 
-0.144144 0.198198 -4.612613 132 132 132 
-0.135135 0.198198 -4.612613 145 145 145 
-0.126126 0.198198 -4.612613 156 156 156 
-0.117117 0.198198 -4.612613 165 165 165 
-0.108108 0.198198 -4.612613 178 178 178 
-0.099099 0.198198 -4.612613 189 189 189 
-0.090090 0.198198 -4.612613 195 195 195 
-0.081081 0.198198 -4.612613 201 201 201 
-0.072072 0.198198 -4.612613 204 204 204 
-0.063063 0.198198 -4.612613 202 202 202 
-0.054054 0.198198 -4.612613 198 198 198 
-0.045045 0.198198 -4.612613 192 192 192 
-0.036036 0.198198 -4.612613 184 184 184 
-0.027027 0.198198 -4.612613 173 173 173 
-0.018018 0.198198 -4.612613 152 152 152 
-0.009009 0.198198 -4.612613 132 132 132 
0.000000 0.198198 -4.612613 109 109 109 
0.009009 0.198198 -4.612613 85 85 85 
0.018018 0.198198 -4.612613 65 65 65 
0.027027 0.198198 -4.612613 64 64 64 
0.036036 0.198198 -4.612613 66 66 66 
0.045045 0.198198 -4.612613 64 64 64 
0.054054 0.198198 -4.612613 64 64 64 
0.063063 0.198198 -4.612613 63 63 63 
0.093458 0.205607 -4.785047 60 60 60 
0.102744 0.205487 -4.782253 62 62 62 
0.112084 0.205487 -4.782253 62 62 62 
5.366615 0.549142 -12.780031 134 134 134 
5.333333 0.543210 -12.641975 136 136 136 
5.325153 0.539877 -12.564417 150 150 150 
5.357911 0.540707 -12.583717 154 154 154 
5.490683 0.546584 -12.720497 157 157 157 
5.473035 0.542373 -12.622497 156 156 156 
5.497689 0.542373 -12.622497 155 155 155 
5.556589 0.545736 -12.700775 153 153 153 
5.590062 0.546584 -12.720497 153 153 153 
5.606202 0.545736 -12.700775 150 150 150 
5.622291 0.544892 -12.681114 144 144 144 
5.647059 0.544892 -12.681114 134 134 134 
5.671827 0.544892 -12.681114 104 104 104 
5.687790 0.544049 -12.661514 57 57 57 
5.712519 0.544049 -12.661514 14 14 14 
15.875000 1.375000 -32.000000 58 58 58 
15.937500 1.375000 -32.000000 59 59 59 
16.000000 1.375000 -32.000000 62 62 62 
16.062500 1.375000 -32.000000 65 65 65 
16.125000 1.375000 -32.000000 67 67 67 
16.187500 1.375000 -32.000000 67 67 67 
16.250000 1.375000 -32.000000 66 66 66 
16.312500 1.375000 -32.000000 65 65 65 
16.375000 1.375000 -32.000000 64 64 64 
16.437500 1.375000 -32.000000 62 62 62 
16.500000 1.375000 -32.000000 60 60 60 
16.562500 1.375000 -32.000000 60 60 60 
16.625000 1.375000 -32.000000 59 59 59 
16.687500 1.375000 -32.000000 58 58 58 
16.750000 1.375000 -32.000000 56 56 56 
16.812500 1.375000 -32.000000 54 54 54 
16.875000 1.375000 -32.000000 53 53 53 
16.937500 1.375000 -32.000000 54 54 54 
17.000000 1.375000 -32.000000 53 53 53 
17.062500 1.375000 -32.000000 53 53 53 
17.125000 1.375000 -32.000000 52 52 52 
17.187500 1.375000 -32.000000 52 52 52 
17.250000 1.375000 -32.000000 54 54 54 
17.312500 1.375000 -32.000000 57 57 57 
17.375000 1.375000 -32.000000 60 60 60 
17.437500 1.375000 -32.000000 61 61 61 
17.500000 1.375000 -32.000000 61 61 61 
-10.812500 1.312500 -32.000000 124 124 124 
-10.750000 1.312500 -32.000000 124 124 124 
-10.687500 1.312500 -32.000000 123 123 123 
-10.625000 1.312500 -32.000000 124 124 124 
-10.562500 1.312500 -32.000000 125 125 125 
-10.500000 1.312500 -32.000000 125 125 125 
-10.437500 1.312500 -32.000000 126 126 126 
-10.375000 1.312500 -32.000000 126 126 126 
-10.312500 1.312500 -32.000000 125 125 125 
-10.250000 1.312500 -32.000000 125 125 125 
-10.187500 1.312500 -32.000000 126 126 126 
-10.125000 1.312500 -32.000000 127 127 127 
-10.062500 1.312500 -32.000000 127 127 127 
-10.000000 1.312500 -32.000000 127 127 127 
-9.937500 1.312500 -32.000000 128 128 128 
-9.875000 1.312500 -32.000000 128 128 128 
-9.812500 1.312500 -32.000000 128 128 128 
-9.750000 1.312500 -32.000000 128 128 128 
-9.687500 1.312500 -32.000000 128 128 128 
-9.625000 1.312500 -32.000000 128 128 128 
-9.562500 1.312500 -32.000000 128 128 128 
-9.500000 1.312500 -32.000000 128 128 128 
-9.437500 1.312500 -32.000000 128 128 128 
-9.375000 1.312500 -32.000000 128 128 128 
-9.312500 1.312500 -32.000000 129 129 129 
-9.250000 1.312500 -32.000000 129 129 129 
-8.808989 1.258427 -30.681648 130 130 130 
-8.749063 1.258427 -30.681648 130 130 130 
-8.592592 1.244444 -30.340740 130 130 130 
-8.501845 1.239852 -30.228783 129 129 129 
-8.411765 1.235294 -30.117647 129 129 129 
-8.352942 1.235294 -30.117647 129 129 129 
-2.289086 0.495575 -12.082596 31 31 31 
-2.262150 0.494845 -12.064801 33 33 33 
-2.235294 0.494118 -12.047059 35 35 35 
-2.211765 0.494118 -12.047059 118 118 118 
-2.194690 0.495575 -12.082596 186 186 186 
-0.345455 0.190909 -4.654545 94 94 94 
-0.336173 0.190801 -4.651902 104 104 104 
-0.326901 0.190692 -4.649262 117 117 117 
-0.317640 0.190584 -4.646625 127 127 127 
-0.308565 0.190584 -4.646625 128 128 128 
-0.299489 0.190584 -4.646625 124 124 124 
-0.290579 0.190692 -4.649262 106 106 106 
-0.298975 0.202532 -4.937914 86 86 86 
-0.290381 0.203267 -4.955838 67 67 67 
-0.280702 0.203267 -4.955838 63 63 63 
-0.271022 0.203267 -4.955838 65 65 65 
-0.261343 0.203267 -4.955838 68 68 68 
-0.250753 0.202532 -4.937914 65 65 65 
-0.225225 0.189189 -4.612613 69 69 69 
-0.216216 0.189189 -4.612613 72 72 72 
-0.207207 0.189189 -4.612613 82 82 82 
-0.189189 0.189189 -4.612613 108 108 108 
-0.171171 0.189189 -4.612613 133 133 133 
-0.162162 0.189189 -4.612613 149 149 149 
-0.153153 0.189189 -4.612613 164 164 164 
-0.144144 0.189189 -4.612613 176 176 176 
-0.135135 0.189189 -4.612613 188 188 188 
-0.126126 0.189189 -4.612613 197 197 197 
-0.117117 0.189189 -4.612613 203 203 203 
-0.108108 0.189189 -4.612613 209 209 209 
-0.099099 0.189189 -4.612613 214 214 214 
-0.090090 0.189189 -4.612613 215 215 215 
-0.081081 0.189189 -4.612613 216 216 216 
-0.072072 0.189189 -4.612613 216 216 216 
-0.063063 0.189189 -4.612613 216 216 216 
-0.054054 0.189189 -4.612613 214 214 214 
-0.045045 0.189189 -4.612613 208 208 208 
-0.036036 0.189189 -4.612613 202 202 202 
-0.027027 0.189189 -4.612613 197 197 197 
-0.018018 0.189189 -4.612613 187 187 187 
-0.009009 0.189189 -4.612613 174 174 174 
0.000000 0.189189 -4.612613 145 145 145 
0.009009 0.189189 -4.612613 115 115 115 
0.018018 0.189189 -4.612613 80 80 80 
0.027027 0.189189 -4.612613 65 65 65 
0.036036 0.189189 -4.612613 62 62 62 
0.045045 0.189189 -4.612613 61 61 61 
