ply
        format ascii 1.0
        element vertex 68800
        property float x
        property float y
        property float z
        property uchar red
        property uchar green
        property uchar blue
        end_header
1.068705 -0.182758 6.440451 29 41 73
0.062297 -0.009372 0.330280 21 30 52
0.059436 -0.008500 0.299556 21 29 56
0.059591 -0.008500 0.299556 21 29 56
0.059659 -0.008488 0.299121 23 30 54
0.033721 -0.004562 0.160760 8 12 26
0.033803 -0.004562 0.160760 8 12 26
0.026099 -0.003236 0.114053 19 26 37
0.023569 -0.002884 0.101624 20 28 36
0.024567 -0.002999 0.105689 19 26 37
0.023921 -0.002857 0.100681 17 24 35
0.023973 -0.002857 0.100681 18 25 36
0.024014 -0.002856 0.100632 22 27 36
0.024065 -0.002856 0.100632 21 26 35
0.024117 -0.002856 0.100632 21 26 33
0.023982 -0.002833 0.099852 20 25 32
0.024033 -0.002833 0.099852 20 25 32
0.024085 -0.002833 0.099852 20 25 32
0.024136 -0.002833 0.099852 18 25 36
0.227961 -0.026704 0.941070 18 25 36
0.229494 -0.026827 0.945387 18 25 36
0.283254 -0.033041 1.164375 18 25 36
0.281276 -0.032672 1.151366 18 25 38
0.278755 -0.032311 1.138643 18 24 40
0.271833 -0.031442 1.108034 18 24 40
0.269506 -0.031108 1.096247 17 24 37
0.267229 -0.030780 1.084707 17 24 37
0.266386 -0.030619 1.079028 17 24 35
0.261466 -0.029991 1.056895 18 25 36
0.254190 -0.029096 1.025345 19 26 37
0.261217 -0.029838 1.051502 19 26 37
1.616553 -0.182758 6.440451 18 25 36
1.619873 -0.182758 6.440451 17 24 35
1.623193 -0.182758 6.440451 18 25 38
0.256396 -0.028809 1.015244 17 24 37
0.258191 -0.028952 1.020269 17 24 37
0.260005 -0.029096 1.025345 18 25 38
0.259243 -0.028952 1.020269 18 25 38
0.257223 -0.028668 1.010267 19 26 39
0.256486 -0.028528 1.005339 19 26 39
0.257005 -0.028528 1.005339 19 26 39
0.260060 -0.028809 1.015244 19 26 39
0.263176 -0.029096 1.025345 20 27 40
0.263705 -0.029096 1.025345 19 26 39
0.264233 -0.029096 1.025345 20 27 40
1.141323 -0.124431 4.384988 18 25 36
1.143583 -0.124431 4.384988 17 24 35
1.223970 -0.132915 4.683964 17 25 33
1.686279 -0.182758 6.440451 18 26 34
1.689599 -0.182758 6.440451 20 25 32
0.257969 -0.027849 0.981402 19 24 31
0.256036 -0.027586 0.972144 18 23 30
0.256537 -0.027586 0.972144 19 24 31
0.257039 -0.027586 0.972144 21 26 33
0.262492 -0.028117 0.990839 20 25 32
0.000971 -0.002782 0.099852 251 251 251
0.001023 -0.002782 0.099852 251 251 251
0.001074 -0.002782 0.099852 251 251 251
0.001126 -0.002782 0.099852 251 251 251
0.001177 -0.002782 0.099852 251 251 251
0.001229 -0.002782 0.099852 251 251 251
0.001280 -0.002782 0.099852 251 251 251
0.001332 -0.002782 0.099852 251 251 251
0.001383 -0.002782 0.099852 251 251 251
0.001435 -0.002782 0.099852 251 251 251
0.001486 -0.002782 0.099852 251 251 251
0.001538 -0.002782 0.099852 251 251 251
0.001589 -0.002782 0.099852 251 251 251
0.001641 -0.002782 0.099852 251 251 251
0.001692 -0.002782 0.099852 251 251 251
0.001744 -0.002782 0.099852 251 251 251
0.001795 -0.002782 0.099852 251 251 251
0.001847 -0.002782 0.099852 251 251 251
0.001898 -0.002782 0.099852 251 251 251
0.001950 -0.002782 0.099852 251 251 251
0.002001 -0.002782 0.099852 251 251 251
0.002052 -0.002782 0.099852 251 251 251
0.002104 -0.002782 0.099852 251 251 251
0.002155 -0.002782 0.099852 251 251 251
0.002207 -0.002782 0.099852 251 251 251
0.002258 -0.002782 0.099852 251 251 251
0.002310 -0.002782 0.099852 251 251 251
0.002361 -0.002782 0.099852 251 251 251
0.002413 -0.002782 0.099852 251 251 251
0.002464 -0.002782 0.099852 251 251 251
0.002516 -0.002782 0.099852 251 251 251
0.002567 -0.002782 0.099852 251 251 251
0.002619 -0.002782 0.099852 251 251 251
0.002670 -0.002782 0.099852 251 251 251
0.002722 -0.002782 0.099852 251 251 251
0.002773 -0.002782 0.099852 251 251 251
0.002825 -0.002782 0.099852 251 251 251
0.002876 -0.002782 0.099852 251 251 251
0.002928 -0.002782 0.099852 251 251 251
0.198790 -0.179437 6.440451 251 251 251
0.202111 -0.179437 6.440451 251 251 251
0.205431 -0.179437 6.440451 251 251 251
0.208751 -0.179437 6.440451 251 251 251
0.212071 -0.179437 6.440451 251 251 251
0.215392 -0.179437 6.440451 251 251 251
0.218712 -0.179437 6.440451 251 251 251
0.222032 -0.179437 6.440451 251 251 251
0.225353 -0.179437 6.440451 251 251 251
0.228673 -0.179437 6.440451 251 251 251
0.231993 -0.179437 6.440451 251 251 251
0.235313 -0.179437 6.440451 251 251 251
0.238634 -0.179437 6.440451 251 251 251
0.241954 -0.179437 6.440451 251 251 251
0.245274 -0.179437 6.440451 251 251 251
0.248595 -0.179437 6.440451 251 251 251
0.251915 -0.179437 6.440451 251 251 251
0.255235 -0.179437 6.440451 251 251 251
0.258555 -0.179437 6.440451 251 251 251
0.261876 -0.179437 6.440451 251 251 251
0.265196 -0.179437 6.440451 251 251 251
0.268516 -0.179437 6.440451 251 251 251
0.271837 -0.179437 6.440451 251 251 251
0.275157 -0.179437 6.440451 251 251 251
0.278477 -0.179437 6.440451 251 251 251
0.281797 -0.179437 6.440451 251 251 251
0.285118 -0.179437 6.440451 251 251 251
0.288438 -0.179437 6.440451 251 251 251
0.291758 -0.179437 6.440451 251 251 251
0.295079 -0.179437 6.440451 251 251 251
0.298399 -0.179437 6.440451 251 251 251
0.301719 -0.179437 6.440451 251 251 251
0.305039 -0.179437 6.440451 251 251 251
0.308360 -0.179437 6.440451 251 251 251
0.311680 -0.179437 6.440451 251 251 251
0.315000 -0.179437 6.440451 251 251 251
0.318321 -0.179437 6.440451 251 251 251
0.321641 -0.179437 6.440451 251 251 251
0.324961 -0.179437 6.440451 251 251 251
0.328281 -0.179437 6.440451 251 251 251
0.331602 -0.179437 6.440451 251 251 251
0.334922 -0.179437 6.440451 251 251 251
0.338242 -0.179437 6.440451 251 251 251
0.341563 -0.179437 6.440451 251 251 251
0.344883 -0.179437 6.440451 251 251 251
0.348203 -0.179437 6.440451 251 251 251
0.351523 -0.179437 6.440451 251 251 251
0.354844 -0.179437 6.440451 251 251 251
0.358164 -0.179437 6.440451 251 251 251
0.361484 -0.179437 6.440451 251 251 251
0.364805 -0.179437 6.440451 251 251 251
0.368125 -0.179437 6.440451 251 251 251
0.371445 -0.179437 6.440451 251 251 251
0.374765 -0.179437 6.440451 251 251 251
0.378086 -0.179437 6.440451 251 251 251
0.381406 -0.179437 6.440451 251 251 251
0.384726 -0.179437 6.440451 251 251 251
0.388047 -0.179437 6.440451 251 251 251
0.391367 -0.179437 6.440451 251 251 251
0.394687 -0.179437 6.440451 251 251 251
0.398007 -0.179437 6.440451 251 251 251
0.401328 -0.179437 6.440451 251 251 251
0.404648 -0.179437 6.440451 251 251 251
0.407968 -0.179437 6.440451 251 251 251
0.411289 -0.179437 6.440451 251 251 251
0.414609 -0.179437 6.440451 251 251 251
0.417929 -0.179437 6.440451 251 251 251
0.421250 -0.179437 6.440451 251 251 251
0.424570 -0.179437 6.440451 251 251 251
0.427890 -0.179437 6.440451 251 251 251
0.007869 -0.002782 0.099852 72 81 105
0.007921 -0.002782 0.099852 59 68 92
0.007972 -0.002782 0.099852 65 74 98
0.008024 -0.002782 0.099852 77 86 110
0.730036 -0.179437 6.440451 9 9 20
0.733356 -0.179437 6.440451 9 9 20
0.736677 -0.179437 6.440451 9 9 20
0.739997 -0.179437 6.440451 7 9 22
0.743317 -0.179437 6.440451 7 9 22
0.746638 -0.179437 6.440451 8 10 23
0.749958 -0.179437 6.440451 8 10 23
0.136366 -0.031377 1.126199 25 30 53
0.134737 -0.030871 1.108034 19 24 47
0.137527 -0.031377 1.126199 19 24 47
0.138107 -0.031377 1.126199 18 23 46
0.138688 -0.031377 1.126199 18 21 42
0.138512 -0.031206 1.120078 14 17 38
0.133992 -0.030063 1.079028 13 16 35
0.133847 -0.029906 1.073408 13 16 35
0.134400 -0.029906 1.073408 12 15 32
0.135660 -0.030063 1.079028 9 12 29
0.136934 -0.030221 1.084707 8 11 32
0.137493 -0.030221 1.084707 8 11 32
0.138052 -0.030221 1.084707 9 12 33
0.138611 -0.030221 1.084707 9 12 33
0.112289 -0.023533 0.844649 18 20 44
0.112725 -0.023533 0.844649 16 18 42
0.114096 -0.023727 0.851630 15 17 41
0.115010 -0.023826 0.855164 13 18 41
0.115932 -0.023925 0.858727 13 18 41
0.061543 -0.012013 0.431160 18 25 47
0.061508 -0.011962 0.429363 20 27 49
0.061473 -0.011913 0.427582 19 26 48
0.061693 -0.011913 0.427582 22 29 51
0.061914 -0.011913 0.427582 20 25 48
0.062134 -0.011913 0.427582 18 23 46
0.062225 -0.011888 0.426697 18 23 48
0.062445 -0.011888 0.426697 21 26 51
0.062795 -0.011913 0.427582 21 26 51
0.062885 -0.011888 0.426697 21 26 51
0.062845 -0.011839 0.424937 22 28 55
0.063064 -0.011839 0.424937 20 26 53
0.959136 -0.179437 6.440451 23 29 56
0.965777 -0.179437 6.440451 22 28 55
0.969097 -0.179437 6.440451 23 29 56
0.972417 -0.179437 6.440451 23 29 58
0.975737 -0.179437 6.440451 23 29 58
0.979058 -0.179437 6.440451 23 29 58
0.982378 -0.179437 6.440451 23 29 58
0.985698 -0.179437 6.440451 22 28 55
0.989019 -0.179437 6.440451 24 30 57
0.992339 -0.179437 6.440451 24 30 59
1.002300 -0.179437 6.440451 25 31 60
1.005620 -0.179437 6.440451 22 30 59
1.008940 -0.179437 6.440451 23 31 60
1.012261 -0.179437 6.440451 22 30 61
1.015581 -0.179437 6.440451 22 30 61
1.018901 -0.179437 6.440451 22 29 63
1.022221 -0.179437 6.440451 24 31 65
1.025542 -0.179437 6.440451 21 33 65
1.028862 -0.179437 6.440451 22 34 66
1.032182 -0.179437 6.440451 22 34 66
1.035503 -0.179437 6.440451 21 33 65
1.038823 -0.179437 6.440451 25 37 69
1.048784 -0.179437 6.440451 24 37 66
1.052104 -0.179437 6.440451 26 39 68
1.065385 -0.179437 6.440451 26 38 70
1.068705 -0.179437 6.440451 28 40 72
0.059523 -0.008358 0.299992 22 29 53
0.027626 -0.003800 0.136396 17 22 45
0.028459 -0.003780 0.135678 9 13 27
0.028492 -0.003775 0.135499 6 10 24
0.024680 -0.002958 0.106180 19 26 37
0.024735 -0.002958 0.106180 19 26 37
0.023823 -0.002800 0.100485 18 25 38
0.023898 -0.002802 0.100583 17 25 33
0.023950 -0.002802 0.100583 17 25 33
0.024014 -0.002804 0.100632 18 26 32
0.024018 -0.002798 0.100436 18 26 32
0.023930 -0.002782 0.099852 18 26 32
0.023982 -0.002782 0.099852 18 26 32
0.024033 -0.002782 0.099852 18 26 32
0.024085 -0.002782 0.099852 23 31 37
0.277807 -0.031549 1.132387 20 27 40
0.269506 -0.030543 1.096247 18 24 40
0.267229 -0.030221 1.084707 18 24 40
0.263625 -0.029751 1.067847 18 24 40
0.256211 -0.028854 1.035650 19 25 41
0.250452 -0.028147 1.010267 20 26 42
1.616553 -0.179437 6.440451 18 25 38
1.619873 -0.179437 6.440451 18 25 38
1.623193 -0.179437 6.440451 17 24 37
1.626514 -0.179437 6.440451 18 25 38
0.263407 -0.029000 1.040881 17 24 35
0.258718 -0.028426 1.020269 18 25 36
0.257966 -0.028286 1.015244 19 26 37
0.257223 -0.028147 1.010267 20 27 38
0.255241 -0.027874 1.000458 19 26 39
0.254521 -0.027739 0.995625 20 27 40
0.257523 -0.028010 1.005339 18 25 38
1.141323 -0.122170 4.384988 20 27 38
1.119759 -0.119625 4.293634 18 25 36
1.121972 -0.119625 4.293634 17 25 33
1.686279 -0.179437 6.440451 18 26 34
1.689599 -0.179437 6.440451 18 26 32
0.257969 -0.027343 0.981402 17 25 31
0.257250 -0.027213 0.976751 16 24 30
0.257753 -0.027213 0.976751 16 24 30
0.261982 -0.027606 0.990839 18 26 32
1.099724 -0.112588 4.041067 19 27 31
0.000971 -0.002730 0.099852 251 251 251
0.001023 -0.002730 0.099852 251 251 251
0.001074 -0.002730 0.099852 251 251 251
0.001126 -0.002730 0.099852 251 251 251
0.001177 -0.002730 0.099852 251 251 251
0.001229 -0.002730 0.099852 251 251 251
0.001280 -0.002730 0.099852 251 251 251
0.001332 -0.002730 0.099852 251 251 251
0.001383 -0.002730 0.099852 251 251 251
0.001435 -0.002730 0.099852 251 251 251
0.001486 -0.002730 0.099852 251 251 251
0.001538 -0.002730 0.099852 251 251 251
0.001589 -0.002730 0.099852 251 251 251
0.001641 -0.002730 0.099852 251 251 251
0.001692 -0.002730 0.099852 251 251 251
0.001744 -0.002730 0.099852 251 251 251
0.001795 -0.002730 0.099852 251 251 251
0.001847 -0.002730 0.099852 251 251 251
0.001898 -0.002730 0.099852 251 251 251
0.001950 -0.002730 0.099852 251 251 251
0.002001 -0.002730 0.099852 251 251 251
0.002052 -0.002730 0.099852 251 251 251
0.002104 -0.002730 0.099852 251 251 251
0.002155 -0.002730 0.099852 251 251 251
0.002207 -0.002730 0.099852 251 251 251
0.002258 -0.002730 0.099852 251 251 251
0.002310 -0.002730 0.099852 251 251 251
0.002361 -0.002730 0.099852 251 251 251
0.002413 -0.002730 0.099852 251 251 251
0.002464 -0.002730 0.099852 251 251 251
0.002516 -0.002730 0.099852 251 251 251
0.002567 -0.002730 0.099852 251 251 251
0.002619 -0.002730 0.099852 251 251 251
0.002670 -0.002730 0.099852 251 251 251
0.002722 -0.002730 0.099852 251 251 251
0.002773 -0.002730 0.099852 251 251 251
0.002825 -0.002730 0.099852 251 251 251
0.002876 -0.002730 0.099852 251 251 251
0.002928 -0.002730 0.099852 251 251 251
0.002979 -0.002730 0.099852 251 251 251
0.202111 -0.176117 6.440451 251 251 251
0.205431 -0.176117 6.440451 251 251 251
0.208751 -0.176117 6.440451 251 251 251
0.212071 -0.176117 6.440451 251 251 251
0.215392 -0.176117 6.440451 251 251 251
0.218712 -0.176117 6.440451 251 251 251
0.222032 -0.176117 6.440451 251 251 251
0.225353 -0.176117 6.440451 251 251 251
0.228673 -0.176117 6.440451 251 251 251
0.231993 -0.176117 6.440451 251 251 251
0.235313 -0.176117 6.440451 251 251 251
0.238634 -0.176117 6.440451 251 251 251
0.241954 -0.176117 6.440451 251 251 251
0.245274 -0.176117 6.440451 251 251 251
0.248595 -0.176117 6.440451 251 251 251
0.251915 -0.176117 6.440451 251 251 251
0.255235 -0.176117 6.440451 251 251 251
0.258555 -0.176117 6.440451 251 251 251
0.261876 -0.176117 6.440451 251 251 251
0.265196 -0.176117 6.440451 251 251 251
0.268516 -0.176117 6.440451 251 251 251
0.271837 -0.176117 6.440451 251 251 251
0.275157 -0.176117 6.440451 251 251 251
0.278477 -0.176117 6.440451 251 251 251
0.281797 -0.176117 6.440451 251 251 251
0.285118 -0.176117 6.440451 251 251 251
0.288438 -0.176117 6.440451 251 251 251
0.291758 -0.176117 6.440451 251 251 251
0.295079 -0.176117 6.440451 251 251 251
0.298399 -0.176117 6.440451 251 251 251
0.301719 -0.176117 6.440451 251 251 251
0.305039 -0.176117 6.440451 251 251 251
0.308360 -0.176117 6.440451 251 251 251
0.311680 -0.176117 6.440451 251 251 251
0.315000 -0.176117 6.440451 251 251 251
0.318321 -0.176117 6.440451 251 251 251
0.321641 -0.176117 6.440451 251 251 251
0.324961 -0.176117 6.440451 251 251 251
0.328281 -0.176117 6.440451 251 251 251
0.331602 -0.176117 6.440451 251 251 251
0.334922 -0.176117 6.440451 251 251 251
0.338242 -0.176117 6.440451 251 251 251
0.341563 -0.176117 6.440451 251 251 251
0.344883 -0.176117 6.440451 251 251 251
0.348203 -0.176117 6.440451 251 251 251
0.351523 -0.176117 6.440451 251 251 251
0.354844 -0.176117 6.440451 251 251 251
0.358164 -0.176117 6.440451 251 251 251
0.361484 -0.176117 6.440451 251 251 251
0.364805 -0.176117 6.440451 251 251 251
0.368125 -0.176117 6.440451 251 251 251
0.371445 -0.176117 6.440451 251 251 251
0.374765 -0.176117 6.440451 251 251 251
0.378086 -0.176117 6.440451 251 251 251
0.381406 -0.176117 6.440451 251 251 251
0.384726 -0.176117 6.440451 251 251 251
0.388047 -0.176117 6.440451 251 251 251
0.391367 -0.176117 6.440451 251 251 251
0.394687 -0.176117 6.440451 251 251 251
0.398007 -0.176117 6.440451 251 251 251
0.401328 -0.176117 6.440451 251 251 251
0.404648 -0.176117 6.440451 251 251 251
0.407968 -0.176117 6.440451 251 251 251
0.411289 -0.176117 6.440451 251 251 251
0.414609 -0.176117 6.440451 251 251 251
0.417929 -0.176117 6.440451 251 251 251
0.421250 -0.176117 6.440451 251 251 251
0.424570 -0.176117 6.440451 251 251 251
0.427890 -0.176117 6.440451 251 251 251
0.007406 -0.002789 0.101976 133 142 154
0.007869 -0.002730 0.099852 58 67 91
0.007921 -0.002730 0.099852 70 79 103
0.007972 -0.002730 0.099852 74 83 107
0.730036 -0.176117 6.440451 9 8 22
0.733356 -0.176117 6.440451 10 10 21
0.736677 -0.176117 6.440451 9 9 20
0.739997 -0.176117 6.440451 8 10 23
0.743317 -0.176117 6.440451 8 10 23
0.746638 -0.176117 6.440451 9 11 26
0.749958 -0.176117 6.440451 9 11 26
0.133449 -0.030138 1.102109 24 29 52
0.134017 -0.030138 1.102109 20 25 48
0.135309 -0.030300 1.108034 19 24 47
0.138107 -0.030796 1.126199 18 23 46
0.138688 -0.030796 1.126199 14 19 42
0.138512 -0.030629 1.120078 12 17 40
0.133294 -0.029353 1.073408 15 18 39
0.133847 -0.029353 1.073408 13 16 37
0.134400 -0.029353 1.073408 11 14 31
0.134954 -0.029353 1.073408 8 11 28
0.136217 -0.029507 1.079028 8 11 32
0.136773 -0.029507 1.079028 9 12 33
0.138052 -0.029662 1.084707 12 15 36
0.112289 -0.023097 0.844649 18 20 44
0.113189 -0.023192 0.848125 16 18 42
0.114096 -0.023288 0.851630 19 21 45
0.115010 -0.023385 0.855164 13 19 39
0.115932 -0.023482 0.858727 16 22 42
0.061543 -0.011790 0.431160 18 25 47
0.061252 -0.011692 0.427582 19 26 48
0.060967 -0.011596 0.424063 18 23 48
0.061185 -0.011596 0.424063 21 26 51
0.061531 -0.011620 0.424937 20 25 48
0.061877 -0.011644 0.425815 17 22 45
0.061969 -0.011620 0.424937 19 26 50
0.062188 -0.011620 0.424937 19 26 50
0.062665 -0.011668 0.426697 20 24 52
0.062626 -0.011620 0.424937 18 22 50
0.062459 -0.011549 0.422325 20 26 53
0.062421 -0.011502 0.420601 23 29 56
0.062894 -0.011549 0.422325 25 29 57
0.975737 -0.176117 6.440451 24 30 57
0.979058 -0.176117 6.440451 25 31 60
0.982378 -0.176117 6.440451 23 29 58
0.985698 -0.176117 6.440451 22 28 55
0.989019 -0.176117 6.440451 24 30 57
0.992339 -0.176117 6.440451 24 30 57
1.002300 -0.176117 6.440451 25 31 60
1.005620 -0.176117 6.440451 22 33 61
1.008940 -0.176117 6.440451 22 33 61
1.012261 -0.176117 6.440451 22 33 63
1.015581 -0.176117 6.440451 20 31 61
1.018901 -0.176117 6.440451 21 31 64
1.022221 -0.176117 6.440451 22 32 65
1.025542 -0.176117 6.440451 21 31 66
1.028862 -0.176117 6.440451 23 33 68
1.032182 -0.176117 6.440451 26 38 70
1.035503 -0.176117 6.440451 25 37 69
1.052104 -0.176117 6.440451 22 35 64
1.055424 -0.176117 6.440451 25 38 67
0.032881 -0.005352 0.195721 26 41 74
0.027589 -0.003725 0.136216 18 24 44
0.027696 -0.003730 0.136396 16 22 42
0.028408 -0.003713 0.135767 13 16 33
0.028441 -0.003708 0.135588 9 12 29
0.028473 -0.003703 0.135410 8 11 28
0.028543 -0.003703 0.135410 16 19 36
0.029673 -0.003740 0.136758 20 29 53
0.029586 -0.003720 0.136036 21 30 54
0.024680 -0.002904 0.106180 20 27 40
0.024646 -0.002893 0.105798 24 31 44
0.024701 -0.002893 0.105798 21 28 41
0.023760 -0.002746 0.100436 18 25 38
0.023800 -0.002745 0.100387 18 25 38
0.023863 -0.002746 0.100436 17 24 35
0.023915 -0.002746 0.100436 17 24 35
0.023967 -0.002746 0.100436 20 28 36
0.023879 -0.002730 0.099852 20 28 36
0.023930 -0.002730 0.099852 19 27 33
0.023982 -0.002730 0.099852 18 26 32
0.024033 -0.002730 0.099852 18 26 34
0.267229 -0.029662 1.084707 18 24 40
0.266386 -0.029507 1.079028 18 24 40
0.264176 -0.029201 1.067847 18 24 40
1.613232 -0.176117 6.440451 18 25 38
1.616553 -0.176117 6.440451 16 23 36
1.619873 -0.176117 6.440451 18 25 38
1.623193 -0.176117 6.440451 19 26 39
0.263152 -0.028320 1.035650 20 27 40
0.257223 -0.027626 1.010267 21 28 41
0.255241 -0.027358 1.000458 20 27 40
0.254521 -0.027226 0.995625 21 28 41
0.256273 -0.027358 1.000458 18 25 38
1.117545 -0.117411 4.293634 21 28 39
1.119759 -0.117411 4.293634 21 28 39
1.121972 -0.117411 4.293634 19 27 35
0.262221 -0.027226 0.995625 17 25 31
1.058225 -0.106335 3.888574 20 28 34
0.000971 -0.002679 0.099852 251 251 251
0.001023 -0.002679 0.099852 251 251 251
0.001074 -0.002679 0.099852 251 251 251
0.001126 -0.002679 0.099852 251 251 251
0.001177 -0.002679 0.099852 251 251 251
0.001229 -0.002679 0.099852 251 251 251
0.001280 -0.002679 0.099852 251 251 251
0.001332 -0.002679 0.099852 251 251 251
0.001383 -0.002679 0.099852 251 251 251
0.001435 -0.002679 0.099852 251 251 251
0.001486 -0.002679 0.099852 251 251 251
0.001538 -0.002679 0.099852 251 251 251
0.001589 -0.002679 0.099852 251 251 251
0.001641 -0.002679 0.099852 251 251 251
0.001692 -0.002679 0.099852 251 251 251
0.001744 -0.002679 0.099852 251 251 251
0.001795 -0.002679 0.099852 251 251 251
0.001847 -0.002679 0.099852 251 251 251
0.001898 -0.002679 0.099852 251 251 251
0.001950 -0.002679 0.099852 251 251 251
0.002001 -0.002679 0.099852 251 251 251
0.002052 -0.002679 0.099852 251 251 251
0.002104 -0.002679 0.099852 251 251 251
0.002155 -0.002679 0.099852 251 251 251
0.002207 -0.002679 0.099852 251 251 251
0.002258 -0.002679 0.099852 251 251 251
0.002310 -0.002679 0.099852 251 251 251
0.002361 -0.002679 0.099852 251 251 251
0.002413 -0.002679 0.099852 251 251 251
0.002464 -0.002679 0.099852 251 251 251
0.002516 -0.002679 0.099852 251 251 251
0.002567 -0.002679 0.099852 251 251 251
0.002619 -0.002679 0.099852 251 251 251
0.002670 -0.002679 0.099852 251 251 251
0.002722 -0.002679 0.099852 251 251 251
0.002773 -0.002679 0.099852 251 251 251
0.002825 -0.002679 0.099852 251 251 251
0.002876 -0.002679 0.099852 251 251 251
0.002928 -0.002679 0.099852 251 251 251
0.002979 -0.002679 0.099852 251 251 251
0.202111 -0.172797 6.440451 251 251 251
0.205431 -0.172797 6.440451 251 251 251
0.208751 -0.172797 6.440451 251 251 251
0.212071 -0.172797 6.440451 251 251 251
0.215392 -0.172797 6.440451 251 251 251
0.218712 -0.172797 6.440451 251 251 251
0.222032 -0.172797 6.440451 251 251 251
0.225353 -0.172797 6.440451 251 251 251
0.228673 -0.172797 6.440451 251 251 251
0.231993 -0.172797 6.440451 251 251 251
0.235313 -0.172797 6.440451 251 251 251
0.238634 -0.172797 6.440451 251 251 251
0.241954 -0.172797 6.440451 251 251 251
0.245274 -0.172797 6.440451 251 251 251
0.248595 -0.172797 6.440451 251 251 251
0.251915 -0.172797 6.440451 251 251 251
0.255235 -0.172797 6.440451 251 251 251
0.258555 -0.172797 6.440451 251 251 251
0.261876 -0.172797 6.440451 251 251 251
0.265196 -0.172797 6.440451 251 251 251
0.268516 -0.172797 6.440451 251 251 251
0.271837 -0.172797 6.440451 251 251 251
0.275157 -0.172797 6.440451 251 251 251
0.278477 -0.172797 6.440451 251 251 251
0.281797 -0.172797 6.440451 251 251 251
0.285118 -0.172797 6.440451 251 251 251
0.288438 -0.172797 6.440451 251 251 251
0.291758 -0.172797 6.440451 251 251 251
0.295079 -0.172797 6.440451 251 251 251
0.298399 -0.172797 6.440451 251 251 251
0.301719 -0.172797 6.440451 251 251 251
0.305039 -0.172797 6.440451 251 251 251
0.308360 -0.172797 6.440451 251 251 251
0.311680 -0.172797 6.440451 251 251 251
0.315000 -0.172797 6.440451 251 251 251
0.318321 -0.172797 6.440451 251 251 251
0.321641 -0.172797 6.440451 251 251 251
0.324961 -0.172797 6.440451 251 251 251
0.328281 -0.172797 6.440451 251 251 251
0.331602 -0.172797 6.440451 251 251 251
0.334922 -0.172797 6.440451 251 251 251
0.338242 -0.172797 6.440451 251 251 251
0.341563 -0.172797 6.440451 251 251 251
0.344883 -0.172797 6.440451 251 251 251
0.348203 -0.172797 6.440451 251 251 251
0.351523 -0.172797 6.440451 251 251 251
0.354844 -0.172797 6.440451 251 251 251
0.358164 -0.172797 6.440451 251 251 251
0.361484 -0.172797 6.440451 251 251 251
0.364805 -0.172797 6.440451 251 251 251
0.368125 -0.172797 6.440451 251 251 251
0.371445 -0.172797 6.440451 251 251 251
0.374765 -0.172797 6.440451 251 251 251
0.378086 -0.172797 6.440451 251 251 251
0.381406 -0.172797 6.440451 251 251 251
0.384726 -0.172797 6.440451 251 251 251
0.388047 -0.172797 6.440451 251 251 251
0.391367 -0.172797 6.440451 251 251 251
0.394687 -0.172797 6.440451 251 251 251
0.398007 -0.172797 6.440451 251 251 251
0.401328 -0.172797 6.440451 251 251 251
0.404648 -0.172797 6.440451 251 251 251
0.407968 -0.172797 6.440451 251 251 251
0.411289 -0.172797 6.440451 251 251 251
0.414609 -0.172797 6.440451 251 251 251
0.417929 -0.172797 6.440451 251 251 251
0.421250 -0.172797 6.440451 251 251 251
0.424570 -0.172797 6.440451 251 251 251
0.427890 -0.172797 6.440451 251 251 251
0.007406 -0.002736 0.101976 141 149 164
0.007436 -0.002728 0.101675 143 151 166
0.007921 -0.002679 0.099852 75 86 112
0.730036 -0.172797 6.440451 10 9 23
0.733356 -0.172797 6.440451 7 9 22
0.736677 -0.172797 6.440451 8 10 23
0.739997 -0.172797 6.440451 9 11 24
0.743317 -0.172797 6.440451 9 11 24
0.746638 -0.172797 6.440451 9 11 26
0.749958 -0.172797 6.440451 13 15 30
0.134891 -0.029889 1.114024 24 29 54
0.134737 -0.029728 1.108034 23 28 53
0.136040 -0.029889 1.114024 19 24 47
0.138107 -0.030216 1.126199 17 22 45
0.138688 -0.030216 1.126199 17 23 43
0.138512 -0.030052 1.120078 14 20 40
0.133294 -0.028799 1.073408 11 15 27
0.133847 -0.028799 1.073408 11 15 27
0.134400 -0.028799 1.073408 13 14 32
0.135660 -0.028950 1.079028 10 11 29
0.136217 -0.028950 1.079028 9 12 31
0.136773 -0.028950 1.079028 9 12 31
0.113217 -0.022849 0.851630 19 21 45
0.113657 -0.022849 0.851630 17 22 45
0.114569 -0.022944 0.855164 16 21 44
0.115010 -0.022944 0.855164 16 21 44
0.061286 -0.011520 0.429363 20 25 50
0.060623 -0.011354 0.423192 19 24 49
0.060593 -0.011308 0.421461 19 24 49
0.060562 -0.011262 0.419744 19 24 49
0.060779 -0.011262 0.419744 18 25 49
0.061370 -0.011331 0.422325 18 25 49
0.061588 -0.011331 0.422325 20 25 50
0.061932 -0.011354 0.423192 18 23 48
0.062407 -0.011401 0.424937 18 23 48
0.062497 -0.011378 0.424063 18 23 48
0.062077 -0.011262 0.419744 20 26 53
0.062167 -0.011239 0.418891 24 30 57
0.061755 -0.011126 0.414677 23 29 56
0.979058 -0.172797 6.440451 24 30 57
0.982378 -0.172797 6.440451 24 30 57
0.985698 -0.172797 6.440451 24 30 57
0.989019 -0.172797 6.440451 25 31 58
0.992339 -0.172797 6.440451 24 30 59
1.002300 -0.172797 6.440451 23 31 60
1.005620 -0.172797 6.440451 23 31 60
1.008940 -0.172797 6.440451 24 32 61
1.012261 -0.172797 6.440451 22 33 63
1.015581 -0.172797 6.440451 21 32 62
1.018901 -0.172797 6.440451 21 31 64
1.022221 -0.172797 6.440451 21 31 64
1.025542 -0.172797 6.440451 21 33 67
1.028862 -0.172797 6.440451 22 34 68
1.032182 -0.172797 6.440451 25 37 71
1.052104 -0.172797 6.440451 26 39 68
1.055424 -0.172797 6.440451 29 42 71
0.053430 -0.008481 0.316096 26 38 70
0.054174 -0.008573 0.319526 25 37 69
0.054171 -0.008546 0.318539 26 38 70
0.054504 -0.008573 0.319526 26 37 67
0.058683 -0.008416 0.313690 21 30 54
0.058845 -0.008416 0.313690 21 30 54
0.058827 -0.008391 0.312738 21 30 54
0.020987 -0.002890 0.107734 21 32 60
0.021021 -0.002887 0.107621 23 34 62
0.027574 -0.003662 0.136486 19 24 47
0.027589 -0.003655 0.136216 18 23 46
0.027696 -0.003659 0.136396 18 23 46
0.028502 -0.003655 0.136216 11 15 29
0.028478 -0.003643 0.135767 10 12 25
0.028511 -0.003638 0.135588 10 12 25
0.028599 -0.003640 0.135678 19 22 39
0.029614 -0.003662 0.136486 22 29 53
0.029586 -0.003650 0.136036 22 29 53
0.029657 -0.003650 0.136036 24 31 53
0.022952 -0.002679 0.099852 19 26 37
0.023004 -0.002679 0.099852 19 26 39
0.024580 -0.002856 0.106454 18 25 38
0.024634 -0.002856 0.106454 18 25 38
0.024638 -0.002850 0.106234 19 26 39
0.024680 -0.002849 0.106180 20 27 40
0.024722 -0.002847 0.106125 20 27 40
0.023748 -0.002693 0.100387 18 25 38
0.023788 -0.002692 0.100338 19 26 39
0.023840 -0.002692 0.100338 18 25 36
0.023892 -0.002692 0.100338 16 23 34
0.023827 -0.002679 0.099852 19 27 35
0.023879 -0.002679 0.099852 18 26 34
0.023930 -0.002679 0.099852 18 26 34
0.023982 -0.002679 0.099852 18 26 34
1.613232 -0.172797 6.440451 16 22 38
1.616553 -0.172797 6.440451 12 19 32
1.619873 -0.172797 6.440451 16 23 36
1.623193 -0.172797 6.440451 18 25 38
0.258490 -0.027239 1.015244 19 26 39
0.255241 -0.026842 1.000458 19 26 39
0.254521 -0.026713 0.995625 19 26 39
0.255035 -0.026713 0.995625 19 26 39
1.119759 -0.115198 4.293634 23 30 41
0.869702 -0.086398 3.220225 17 25 31
0.871362 -0.086398 3.220225 16 24 32
1.054215 -0.104330 3.888574 18 26 34
1.097640 -0.108422 4.041067 18 26 34
1.001534 -0.098741 3.680258 19 27 35
0.000971 -0.002628 0.099852 251 251 251
0.001023 -0.002628 0.099852 251 251 251
0.001074 -0.002628 0.099852 251 251 251
0.001126 -0.002628 0.099852 251 251 251
0.001177 -0.002628 0.099852 251 251 251
0.001229 -0.002628 0.099852 251 251 251
0.001280 -0.002628 0.099852 251 251 251
0.001332 -0.002628 0.099852 251 251 251
0.001383 -0.002628 0.099852 251 251 251
0.001435 -0.002628 0.099852 251 251 251
0.001486 -0.002628 0.099852 251 251 251
0.001538 -0.002628 0.099852 251 251 251
0.001589 -0.002628 0.099852 251 251 251
0.001641 -0.002628 0.099852 251 251 251
0.001692 -0.002628 0.099852 251 251 251
0.001744 -0.002628 0.099852 251 251 251
0.001795 -0.002628 0.099852 251 251 251
0.001847 -0.002628 0.099852 251 251 251
0.001898 -0.002628 0.099852 251 251 251
0.001950 -0.002628 0.099852 251 251 251
0.002001 -0.002628 0.099852 251 251 251
0.002052 -0.002628 0.099852 251 251 251
0.002104 -0.002628 0.099852 251 251 251
0.002155 -0.002628 0.099852 251 251 251
0.002207 -0.002628 0.099852 251 251 251
0.002258 -0.002628 0.099852 251 251 251
0.002310 -0.002628 0.099852 251 251 251
0.002361 -0.002628 0.099852 251 251 251
0.002413 -0.002628 0.099852 251 251 251
0.002464 -0.002628 0.099852 251 251 251
0.002516 -0.002628 0.099852 251 251 251
0.002567 -0.002628 0.099852 251 251 251
0.002619 -0.002628 0.099852 251 251 251
0.002670 -0.002628 0.099852 251 251 251
0.002722 -0.002628 0.099852 251 251 251
0.002773 -0.002628 0.099852 251 251 251
0.002825 -0.002628 0.099852 251 251 251
0.002876 -0.002628 0.099852 251 251 251
0.002928 -0.002628 0.099852 251 251 251
0.002979 -0.002628 0.099852 251 251 251
0.003031 -0.002628 0.099852 251 251 251
0.202111 -0.169477 6.440451 251 251 251
0.205431 -0.169477 6.440451 251 251 251
0.208751 -0.169477 6.440451 251 251 251
0.212071 -0.169477 6.440451 251 251 251
0.215392 -0.169477 6.440451 251 251 251
0.218712 -0.169477 6.440451 251 251 251
0.222032 -0.169477 6.440451 251 251 251
0.225353 -0.169477 6.440451 251 251 251
0.228673 -0.169477 6.440451 251 251 251
0.231993 -0.169477 6.440451 251 251 251
0.235313 -0.169477 6.440451 251 251 251
0.238634 -0.169477 6.440451 251 251 251
0.241954 -0.169477 6.440451 251 251 251
0.245274 -0.169477 6.440451 251 251 251
0.248595 -0.169477 6.440451 251 251 251
0.251915 -0.169477 6.440451 251 251 251
0.255235 -0.169477 6.440451 251 251 251
0.258555 -0.169477 6.440451 251 251 251
0.261876 -0.169477 6.440451 251 251 251
0.265196 -0.169477 6.440451 251 251 251
0.268516 -0.169477 6.440451 251 251 251
0.271837 -0.169477 6.440451 251 251 251
0.275157 -0.169477 6.440451 251 251 251
0.278477 -0.169477 6.440451 251 251 251
0.281797 -0.169477 6.440451 251 251 251
0.285118 -0.169477 6.440451 251 251 251
0.288438 -0.169477 6.440451 251 251 251
0.291758 -0.169477 6.440451 251 251 251
0.295079 -0.169477 6.440451 251 251 251
0.298399 -0.169477 6.440451 251 251 251
0.301719 -0.169477 6.440451 251 251 251
0.305039 -0.169477 6.440451 251 251 251
0.308360 -0.169477 6.440451 251 251 251
0.311680 -0.169477 6.440451 251 251 251
0.315000 -0.169477 6.440451 251 251 251
0.318321 -0.169477 6.440451 251 251 251
0.321641 -0.169477 6.440451 251 251 251
0.324961 -0.169477 6.440451 251 251 251
0.328281 -0.169477 6.440451 251 251 251
0.331602 -0.169477 6.440451 251 251 251
0.334922 -0.169477 6.440451 251 251 251
0.338242 -0.169477 6.440451 251 251 251
0.341563 -0.169477 6.440451 251 251 251
0.344883 -0.169477 6.440451 251 251 251
0.348203 -0.169477 6.440451 251 251 251
0.351523 -0.169477 6.440451 251 251 251
0.354844 -0.169477 6.440451 251 251 251
0.358164 -0.169477 6.440451 251 251 251
0.361484 -0.169477 6.440451 251 251 251
0.364805 -0.169477 6.440451 251 251 251
0.368125 -0.169477 6.440451 251 251 251
0.371445 -0.169477 6.440451 251 251 251
0.374765 -0.169477 6.440451 251 251 251
0.378086 -0.169477 6.440451 251 251 251
0.381406 -0.169477 6.440451 251 251 251
0.384726 -0.169477 6.440451 251 251 251
0.388047 -0.169477 6.440451 251 251 251
0.391367 -0.169477 6.440451 251 251 251
0.394687 -0.169477 6.440451 251 251 251
0.398007 -0.169477 6.440451 251 251 251
0.401328 -0.169477 6.440451 251 251 251
0.404648 -0.169477 6.440451 251 251 251
0.407968 -0.169477 6.440451 251 251 251
0.411289 -0.169477 6.440451 251 251 251
0.414609 -0.169477 6.440451 251 251 251
0.417929 -0.169477 6.440451 251 251 251
0.421250 -0.169477 6.440451 251 251 251
0.424570 -0.169477 6.440451 251 251 251
0.427890 -0.169477 6.440451 251 251 251
0.730036 -0.169477 6.440451 10 9 25
0.733356 -0.169477 6.440451 8 10 25
0.736677 -0.169477 6.440451 10 12 27
0.739997 -0.169477 6.440451 12 14 29
0.743317 -0.169477 6.440451 10 12 27
0.746638 -0.169477 6.440451 9 12 29
0.749958 -0.169477 6.440451 13 16 33
0.139413 -0.030297 1.151366 24 29 54
0.136202 -0.029474 1.120078 23 28 53
0.139819 -0.030129 1.144969 21 26 49
0.139633 -0.029963 1.138643 18 23 46
0.139450 -0.029798 1.132387 16 22 40
0.139269 -0.029635 1.126199 13 19 37
0.133992 -0.028394 1.079028 12 15 32
0.134548 -0.028394 1.079028 12 15 32
0.135104 -0.028394 1.079028 12 15 32
0.136374 -0.028543 1.084707 11 14 31
0.137658 -0.028694 1.090447 9 12 29
0.060405 -0.011136 0.423192 19 26 50
0.060130 -0.011045 0.419744 19 26 50
0.060223 -0.011023 0.418891 19 25 52
0.060317 -0.011001 0.418041 19 25 52
0.060532 -0.011001 0.418041 19 26 50
0.060995 -0.011045 0.419744 17 24 48
0.061212 -0.011045 0.419744 17 23 50
0.061553 -0.011068 0.420601 18 24 51
0.062151 -0.011136 0.423192 20 26 53
0.062369 -0.011136 0.423192 20 26 53
0.062077 -0.011045 0.419744 22 28 57
0.061666 -0.010934 0.415513 23 29 58
0.060657 -0.010718 0.407301 24 30 59
0.060867 -0.010718 0.407301 24 30 59
0.979058 -0.169477 6.440451 24 30 59
0.982378 -0.169477 6.440451 25 31 60
0.985698 -0.169477 6.440451 27 33 60
0.989019 -0.169477 6.440451 24 30 57
0.992339 -0.169477 6.440451 25 31 60
0.998979 -0.169477 6.440451 26 32 61
1.002300 -0.169477 6.440451 24 30 59
1.005620 -0.169477 6.440451 22 30 59
1.008940 -0.169477 6.440451 22 30 59
1.012261 -0.169477 6.440451 21 32 62
1.015581 -0.169477 6.440451 22 33 63
1.018901 -0.169477 6.440451 23 33 66
1.022221 -0.169477 6.440451 21 31 64
1.052104 -0.169477 6.440451 26 42 70
1.055424 -0.169477 6.440451 29 45 73
0.060917 -0.008964 0.340652 20 29 53
0.058521 -0.008255 0.313690 22 30 57
0.058594 -0.008242 0.313213 22 30 57
0.058845 -0.008255 0.313690 21 29 56
0.058649 -0.008205 0.311792 22 30 57
0.020910 -0.002832 0.107621 28 36 65
0.020965 -0.002832 0.107621 27 35 64
0.021010 -0.002831 0.107565 29 37 66
0.021054 -0.002829 0.107509 25 33 62
0.021110 -0.002829 0.107509 21 33 56
0.027555 -0.003589 0.136396 19 25 43
0.027626 -0.003589 0.136396 16 22 40
0.027714 -0.003592 0.136486 17 23 41
0.028653 -0.003603 0.136940 8 12 26
0.028572 -0.003584 0.136216 8 10 23
0.028586 -0.003577 0.135946 9 11 24
0.028656 -0.003577 0.135946 14 17 27
0.029673 -0.003599 0.136758 21 26 49
0.029684 -0.003592 0.136486 21 26 49
0.022952 -0.002628 0.099852 19 26 39
0.023004 -0.002628 0.099852 18 25 36
0.024580 -0.002801 0.106454 18 25 36
0.024634 -0.002801 0.106454 19 26 37
0.024651 -0.002797 0.106289 18 25 36
0.024693 -0.002795 0.106234 19 26 37
0.024722 -0.002793 0.106125 19 26 37
0.024726 -0.002787 0.105907 18 25 36
0.023771 -0.002644 0.100485 18 25 38
0.023788 -0.002640 0.100338 18 25 38
0.023828 -0.002639 0.100289 19 26 37
0.023776 -0.002628 0.099852 18 25 36
0.023827 -0.002628 0.099852 17 25 33
0.023879 -0.002628 0.099852 16 24 32
0.023930 -0.002628 0.099852 18 25 36
0.023982 -0.002628 0.099852 19 26 37
1.613232 -0.169477 6.440451 17 23 39
1.616553 -0.169477 6.440451 16 22 38
1.619873 -0.169477 6.440451 18 24 40
1.623193 -0.169477 6.440451 19 25 41
0.255241 -0.026326 1.000458 18 25 38
0.253298 -0.026073 0.990839 19 26 39
0.255035 -0.026199 0.995625 19 26 39
0.869702 -0.084738 3.220225 16 24 30
0.871362 -0.084738 3.220225 14 22 28
0.901184 -0.087472 3.324104 18 26 32
0.982099 -0.095145 3.615692 16 24 32
0.950608 -0.091919 3.493126 18 26 34
0.000971 -0.002576 0.099852 251 251 251
0.001023 -0.002576 0.099852 251 251 251
0.001074 -0.002576 0.099852 251 251 251
0.001126 -0.002576 0.099852 251 251 251
0.001177 -0.002576 0.099852 251 251 251
0.001229 -0.002576 0.099852 251 251 251
0.001280 -0.002576 0.099852 251 251 251
0.001332 -0.002576 0.099852 251 251 251
0.001383 -0.002576 0.099852 251 251 251
0.001435 -0.002576 0.099852 251 251 251
0.001486 -0.002576 0.099852 251 251 251
0.001538 -0.002576 0.099852 251 251 251
0.001589 -0.002576 0.099852 251 251 251
0.001641 -0.002576 0.099852 251 251 251
0.001692 -0.002576 0.099852 251 251 251
0.001744 -0.002576 0.099852 251 251 251
0.001795 -0.002576 0.099852 251 251 251
0.001847 -0.002576 0.099852 251 251 251
0.001898 -0.002576 0.099852 251 251 251
0.001950 -0.002576 0.099852 251 251 251
0.002001 -0.002576 0.099852 251 251 251
0.002052 -0.002576 0.099852 251 251 251
0.002104 -0.002576 0.099852 251 251 251
0.002155 -0.002576 0.099852 251 251 251
0.002207 -0.002576 0.099852 251 251 251
0.002258 -0.002576 0.099852 251 251 251
0.002310 -0.002576 0.099852 251 251 251
0.002361 -0.002576 0.099852 251 251 251
0.002413 -0.002576 0.099852 251 251 251
0.002464 -0.002576 0.099852 251 251 251
0.002516 -0.002576 0.099852 251 251 251
0.002567 -0.002576 0.099852 251 251 251
0.002619 -0.002576 0.099852 251 251 251
0.002670 -0.002576 0.099852 251 251 251
0.002722 -0.002576 0.099852 251 251 251
0.002773 -0.002576 0.099852 251 251 251
0.002825 -0.002576 0.099852 251 251 251
0.002876 -0.002576 0.099852 251 251 251
0.002928 -0.002576 0.099852 251 251 251
0.002979 -0.002576 0.099852 251 251 251
0.003031 -0.002576 0.099852 251 251 251
0.003082 -0.002576 0.099852 251 251 251
0.205431 -0.166156 6.440451 251 251 251
0.208751 -0.166156 6.440451 251 251 251
0.212071 -0.166156 6.440451 251 251 251
0.215392 -0.166156 6.440451 251 251 251
0.218712 -0.166156 6.440451 251 251 251
0.222032 -0.166156 6.440451 251 251 251
0.225353 -0.166156 6.440451 251 251 251
0.228673 -0.166156 6.440451 251 251 251
0.231993 -0.166156 6.440451 251 251 251
0.235313 -0.166156 6.440451 251 251 251
0.238634 -0.166156 6.440451 251 251 251
0.241954 -0.166156 6.440451 251 251 251
0.245274 -0.166156 6.440451 251 251 251
0.248595 -0.166156 6.440451 251 251 251
0.251915 -0.166156 6.440451 251 251 251
0.255235 -0.166156 6.440451 251 251 251
0.258555 -0.166156 6.440451 251 251 251
0.261876 -0.166156 6.440451 251 251 251
0.265196 -0.166156 6.440451 251 251 251
0.268516 -0.166156 6.440451 251 251 251
0.271837 -0.166156 6.440451 251 251 251
0.275157 -0.166156 6.440451 251 251 251
0.278477 -0.166156 6.440451 251 251 251
0.281797 -0.166156 6.440451 251 251 251
0.285118 -0.166156 6.440451 251 251 251
0.288438 -0.166156 6.440451 251 251 251
0.291758 -0.166156 6.440451 251 251 251
0.295079 -0.166156 6.440451 251 251 251
0.298399 -0.166156 6.440451 251 251 251
0.301719 -0.166156 6.440451 251 251 251
0.305039 -0.166156 6.440451 251 251 251
0.308360 -0.166156 6.440451 251 251 251
0.311680 -0.166156 6.440451 251 251 251
0.315000 -0.166156 6.440451 251 251 251
0.318321 -0.166156 6.440451 251 251 251
0.321641 -0.166156 6.440451 251 251 251
0.324961 -0.166156 6.440451 251 251 251
0.328281 -0.166156 6.440451 251 251 251
0.331602 -0.166156 6.440451 251 251 251
0.334922 -0.166156 6.440451 251 251 251
0.338242 -0.166156 6.440451 251 251 251
0.341563 -0.166156 6.440451 251 251 251
0.344883 -0.166156 6.440451 251 251 251
0.348203 -0.166156 6.440451 251 251 251
0.351523 -0.166156 6.440451 251 251 251
0.354844 -0.166156 6.440451 251 251 251
0.358164 -0.166156 6.440451 251 251 251
0.361484 -0.166156 6.440451 251 251 251
0.364805 -0.166156 6.440451 251 251 251
0.368125 -0.166156 6.440451 251 251 251
0.371445 -0.166156 6.440451 251 251 251
0.374765 -0.166156 6.440451 251 251 251
0.378086 -0.166156 6.440451 251 251 251
0.381406 -0.166156 6.440451 251 251 251
0.384726 -0.166156 6.440451 251 251 251
0.388047 -0.166156 6.440451 251 251 251
0.391367 -0.166156 6.440451 251 251 251
0.394687 -0.166156 6.440451 251 251 251
0.398007 -0.166156 6.440451 251 251 251
0.401328 -0.166156 6.440451 251 251 251
0.404648 -0.166156 6.440451 251 251 251
0.407968 -0.166156 6.440451 251 251 251
0.411289 -0.166156 6.440451 251 251 251
0.414609 -0.166156 6.440451 251 251 251
0.417929 -0.166156 6.440451 251 251 251
0.421250 -0.166156 6.440451 251 251 251
0.424570 -0.166156 6.440451 251 251 251
0.427890 -0.166156 6.440451 251 251 251
0.730036 -0.166156 6.440451 9 11 26
0.733356 -0.166156 6.440451 9 10 30
0.736677 -0.166156 6.440451 12 13 33
0.739997 -0.166156 6.440451 12 15 34
0.743317 -0.166156 6.440451 12 15 34
0.746638 -0.166156 6.440451 12 15 34
0.749958 -0.166156 6.440451 13 16 35
0.140006 -0.029704 1.151366 24 29 52
0.139819 -0.029539 1.144969 23 29 49
0.140409 -0.029539 1.144969 18 24 44
0.139450 -0.029214 1.132387 17 23 41
0.139269 -0.029055 1.126199 13 19 37
0.134697 -0.027984 1.084707 13 16 33
0.134548 -0.027838 1.079028 13 16 33
0.136534 -0.028132 1.090447 12 15 34
0.137825 -0.028282 1.096247 9 12 31
0.080817 -0.014607 0.566193 19 26 50
0.060007 -0.010807 0.418891 18 25 49
0.059979 -0.010763 0.417195 19 25 52
0.060073 -0.010741 0.416352 19 25 52
0.060410 -0.010763 0.417195 18 24 51
0.060995 -0.010829 0.419744 18 24 51
0.061212 -0.010829 0.419744 23 29 56
0.061553 -0.010851 0.420601 23 29 56
0.062151 -0.010918 0.423192 24 30 57
0.062369 -0.010918 0.423192 23 29 56
0.061700 -0.010763 0.417195 21 29 56
0.061541 -0.010698 0.414677 22 30 57
0.057262 -0.009920 0.384505 22 30 59
0.057460 -0.009920 0.384505 23 31 60
1.002300 -0.166156 6.440451 24 30 59
1.005620 -0.166156 6.440451 21 29 58
1.008940 -0.166156 6.440451 21 29 58
1.012261 -0.166156 6.440451 20 31 59
1.015581 -0.166156 6.440451 25 36 64
1.018901 -0.166156 6.440451 23 33 66
0.058271 -0.008081 0.313213 21 29 56
0.058432 -0.008081 0.313213 22 30 57
0.058505 -0.008068 0.312738 23 31 58
0.058577 -0.008056 0.312264 22 30 57
0.058649 -0.008044 0.311792 22 30 57
0.020876 -0.002779 0.107734 25 33 64
0.020910 -0.002777 0.107621 29 37 66
0.020954 -0.002775 0.107565 29 37 66
0.020999 -0.002774 0.107509 29 37 64
0.021043 -0.002772 0.107453 27 35 62
0.021077 -0.002769 0.107341 24 33 55
0.021121 -0.002768 0.107285 28 37 59
0.027574 -0.003521 0.136486 18 24 44
0.027644 -0.003521 0.136486 18 24 42
0.028648 -0.003524 0.136577 8 11 21
0.028661 -0.003517 0.136306 10 13 23
0.028732 -0.003517 0.136306 12 15 25
0.022952 -0.002576 0.099852 19 26 39
0.023004 -0.002576 0.099852 18 25 36
0.024567 -0.002745 0.106399 18 25 36
0.024634 -0.002746 0.106454 19 26 37
0.024677 -0.002745 0.106399 20 27 38
0.024706 -0.002742 0.106289 20 28 36
0.024722 -0.002738 0.106125 19 27 35
0.023622 -0.002610 0.101175 18 26 34
0.023743 -0.002595 0.100583 17 24 37
0.023771 -0.002592 0.100485 18 25 38
0.023788 -0.002589 0.100338 18 25 38
0.023724 -0.002576 0.099852 18 25 38
0.023776 -0.002576 0.099852 17 24 37
0.023827 -0.002576 0.099852 17 24 37
0.023879 -0.002576 0.099852 17 24 37
0.023930 -0.002576 0.099852 18 25 38
0.471108 -0.049231 1.908282 19 25 41
0.472092 -0.049231 1.908282 19 25 41
0.477497 -0.049692 1.926116 20 26 42
0.252787 -0.025562 0.990839 18 25 38
0.253298 -0.025562 0.990839 18 25 38
0.869702 -0.083078 3.220225 18 23 32
0.871362 -0.083078 3.220225 19 27 33
0.873022 -0.083078 3.220225 18 26 32
0.902898 -0.085758 3.324104 16 24 30
0.919441 -0.087164 3.378597 17 25 31
0.000971 -0.002525 0.099852 251 251 251
0.001023 -0.002525 0.099852 251 251 251
0.001074 -0.002525 0.099852 251 251 251
0.001126 -0.002525 0.099852 251 251 251
0.001177 -0.002525 0.099852 251 251 251
0.001229 -0.002525 0.099852 251 251 251
0.001280 -0.002525 0.099852 251 251 251
0.001332 -0.002525 0.099852 251 251 251
0.001383 -0.002525 0.099852 251 251 251
0.001435 -0.002525 0.099852 251 251 251
0.001486 -0.002525 0.099852 251 251 251
0.001538 -0.002525 0.099852 251 251 251
0.001589 -0.002525 0.099852 251 251 251
0.001641 -0.002525 0.099852 251 251 251
0.001692 -0.002525 0.099852 251 251 251
0.001744 -0.002525 0.099852 251 251 251
0.001795 -0.002525 0.099852 251 251 251
0.001847 -0.002525 0.099852 251 251 251
0.001898 -0.002525 0.099852 251 251 251
0.001950 -0.002525 0.099852 251 251 251
0.002001 -0.002525 0.099852 251 251 251
0.002052 -0.002525 0.099852 251 251 251
0.002104 -0.002525 0.099852 251 251 251
0.002155 -0.002525 0.099852 251 251 251
0.002207 -0.002525 0.099852 251 251 251
0.002258 -0.002525 0.099852 251 251 251
0.002310 -0.002525 0.099852 251 251 251
0.002361 -0.002525 0.099852 251 251 251
0.002413 -0.002525 0.099852 251 251 251
0.002464 -0.002525 0.099852 251 251 251
0.002516 -0.002525 0.099852 251 251 251
0.002567 -0.002525 0.099852 251 251 251
0.002619 -0.002525 0.099852 251 251 251
0.002670 -0.002525 0.099852 251 251 251
0.002722 -0.002525 0.099852 251 251 251
0.002773 -0.002525 0.099852 251 251 251
0.002825 -0.002525 0.099852 251 251 251
0.002876 -0.002525 0.099852 251 251 251
0.002928 -0.002525 0.099852 251 251 251
0.002979 -0.002525 0.099852 251 251 251
0.003031 -0.002525 0.099852 251 251 251
0.003082 -0.002525 0.099852 251 251 251
0.208751 -0.162836 6.440451 251 251 251
0.212071 -0.162836 6.440451 251 251 251
0.215392 -0.162836 6.440451 251 251 251
0.218712 -0.162836 6.440451 251 251 251
0.222032 -0.162836 6.440451 251 251 251
0.225353 -0.162836 6.440451 251 251 251
0.228673 -0.162836 6.440451 251 251 251
0.231993 -0.162836 6.440451 251 251 251
0.235313 -0.162836 6.440451 251 251 251
0.238634 -0.162836 6.440451 251 251 251
0.241954 -0.162836 6.440451 251 251 251
0.245274 -0.162836 6.440451 251 251 251
0.248595 -0.162836 6.440451 251 251 251
0.251915 -0.162836 6.440451 251 251 251
0.255235 -0.162836 6.440451 251 251 251
0.258555 -0.162836 6.440451 251 251 251
0.261876 -0.162836 6.440451 251 251 251
0.265196 -0.162836 6.440451 251 251 251
0.268516 -0.162836 6.440451 251 251 251
0.271837 -0.162836 6.440451 251 251 251
0.275157 -0.162836 6.440451 251 251 251
0.278477 -0.162836 6.440451 251 251 251
0.281797 -0.162836 6.440451 251 251 251
0.285118 -0.162836 6.440451 251 251 251
0.288438 -0.162836 6.440451 251 251 251
0.291758 -0.162836 6.440451 251 251 251
0.295079 -0.162836 6.440451 251 251 251
0.298399 -0.162836 6.440451 251 251 251
0.301719 -0.162836 6.440451 251 251 251
0.305039 -0.162836 6.440451 251 251 251
0.308360 -0.162836 6.440451 251 251 251
0.311680 -0.162836 6.440451 251 251 251
0.315000 -0.162836 6.440451 251 251 251
0.318321 -0.162836 6.440451 251 251 251
0.321641 -0.162836 6.440451 251 251 251
0.324961 -0.162836 6.440451 251 251 251
0.328281 -0.162836 6.440451 251 251 251
0.331602 -0.162836 6.440451 251 251 251
0.334922 -0.162836 6.440451 251 251 251
0.338242 -0.162836 6.440451 251 251 251
0.341563 -0.162836 6.440451 251 251 251
0.344883 -0.162836 6.440451 251 251 251
0.348203 -0.162836 6.440451 251 251 251
0.351523 -0.162836 6.440451 251 251 251
0.354844 -0.162836 6.440451 251 251 251
0.358164 -0.162836 6.440451 251 251 251
0.361484 -0.162836 6.440451 251 251 251
0.364805 -0.162836 6.440451 251 251 251
0.368125 -0.162836 6.440451 251 251 251
0.371445 -0.162836 6.440451 251 251 251
0.374765 -0.162836 6.440451 251 251 251
0.378086 -0.162836 6.440451 251 251 251
0.381406 -0.162836 6.440451 251 251 251
0.384726 -0.162836 6.440451 251 251 251
0.388047 -0.162836 6.440451 251 251 251
0.391367 -0.162836 6.440451 251 251 251
0.394687 -0.162836 6.440451 251 251 251
0.398007 -0.162836 6.440451 251 251 251
0.401328 -0.162836 6.440451 251 251 251
0.404648 -0.162836 6.440451 251 251 251
0.407968 -0.162836 6.440451 251 251 251
0.411289 -0.162836 6.440451 251 251 251
0.414609 -0.162836 6.440451 251 251 251
0.417929 -0.162836 6.440451 251 251 251
0.421250 -0.162836 6.440451 251 251 251
0.424570 -0.162836 6.440451 251 251 251
0.730036 -0.162836 6.440451 10 12 27
0.733356 -0.162836 6.440451 9 10 30
0.736677 -0.162836 6.440451 14 15 35
0.739997 -0.162836 6.440451 13 16 37
0.743317 -0.162836 6.440451 13 16 37
0.746638 -0.162836 6.440451 13 16 37
0.749958 -0.162836 6.440451 15 18 39
0.140793 -0.029274 1.157834 23 28 51
0.139819 -0.028949 1.144969 21 27 47
0.138866 -0.028630 1.132387 19 25 45
0.139450 -0.028630 1.132387 14 20 40
0.137022 -0.028015 1.108034 13 19 39
0.134697 -0.027425 1.084707 14 17 38
0.135256 -0.027425 1.084707 13 16 37
0.137260 -0.027717 1.096247 13 16 37
0.140821 -0.028319 1.120078 11 14 35
0.059886 -0.010569 0.418041 17 24 48
0.059858 -0.010527 0.416352 19 23 51
0.059952 -0.010506 0.415513 19 23 51
0.060288 -0.010527 0.416352 18 25 49
0.060995 -0.010613 0.419744 19 26 50
0.061336 -0.010634 0.420601 23 30 54
0.061932 -0.010700 0.423192 24 31 55
0.062151 -0.010700 0.423192 24 30 57
0.062369 -0.010700 0.423192 23 29 56
0.061451 -0.010506 0.415513 21 29 56
0.057601 -0.009813 0.388125 22 30 57
0.056524 -0.009596 0.379548 21 29 56
0.056719 -0.009596 0.379548 22 30 57
1.005620 -0.162836 6.440451 22 30 61
1.008940 -0.162836 6.440451 22 30 61
1.012261 -0.162836 6.440451 20 31 59
1.015581 -0.162836 6.440451 23 34 62
0.054561 -0.007943 0.314168 25 33 62
0.054723 -0.007943 0.314168 23 31 60
0.058287 -0.007943 0.314168 21 29 56
0.058271 -0.007919 0.313213 20 31 57
0.058344 -0.007907 0.312738 20 31 57
0.058328 -0.007883 0.311792 20 31 59
0.058577 -0.007895 0.312264 20 31 59
0.020854 -0.002721 0.107621 25 33 60
0.020899 -0.002720 0.107565 28 36 63
